ply
format ascii 1.0
element vertex 684
property float x
property float y
property float z
property uchar red
property uchar green
property uchar blue
end_header
3.4866411685943604 -2.5841827392578125 0.004508615471422672 153 153 153
0.5167728066444397 -0.169111967086792 0.9759066700935364 76 229 76
-4.968438625335693 -2.9970812797546387 -0.005060920957475901 153 153 153
0.09817497432231903 -0.6635342836380005 0.7899121046066284 76 76 229
0.9676822423934937 -1.553597092628479 -0.009652900509536266 153 153 153
1.2308074235916138 -1.3452520370483398 1.6344691514968872 229 76 76
0.8005018830299377 -1.2119683027267456 1.512009620666504 76 76 229
1.6222730875015259 0.06340159475803375 0.7611206769943237 76 229 76
-4.0417094230651855 -2.5449204444885254 -0.008608009666204453 153 153 153
2.6543941497802734 1.6449249982833862 0.00513150030747056 153 153 153
0.18732884526252747 -1.1001225709915161 1.4190969467163086 76 76 229
-1.230893850326538 0.4446128010749817 0.00014070361794438213 153 153 153
0.9709495902061462 -0.5349556803703308 0.7896915078163147 76 229 76
3.644066095352173 4.522587299346924 -0.007437898311764002 153 153 153
-2.9223644733428955 -1.9618914127349854 -0.0057294643484056 153 153 153
0.7936796545982361 -0.3656228184700012 0.004246927332133055 153 153 153
1.7019037008285522 -0.9037623405456543 -0.014050859026610851 153 153 153
0.6606793403625488 -0.3190210163593292 1.7424161434173584 76 76 229
0.322983980178833 -1.5985842943191528 0.5730507969856262 229 76 76
0.09004852175712585 -0.6542980670928955 1.3943297863006592 76 76 229
1.6021180152893066 0.2795521318912506 0.9566984176635742 76 229 76
-3.602799415588379 -4.259941101074219 0.012844586744904518 153 153 153
-3.221062183380127 -4.961336612701416 0.0033429362811148167 153 153 153
0.3186236619949341 -1.7044159173965454 0.48180076479911804 229 76 76
0.986392080783844 -0.022188231348991394 0.43328535556793213 76 229 76
-2.8302559852600098 -0.09742626547813416 0.0018787161679938436 153 153 153
-3.425084352493286 3.288912534713745 -0.012674055993556976 153 153 153
-1.4382423162460327 1.129762887954712 -0.017019249498844147 153 153 153
-2.6085214614868164 -2.621452808380127 0.00661868741735816 153 153 153
4.781949043273926 -3.08661150932312 -0.002899274230003357 153 153 153
-0.47628507018089294 -4.750627040863037 0.004522534552961588 153 153 153
1.6085023880004883 -0.22685471177101135 0.867080569267273 76 229 76
2.4840404987335205 -0.8393770456314087 -0.011320279911160469 153 153 153
0.3096635043621063 -1.2326958179473877 0.6916056275367737 76 76 229
0.317364364862442 -1.359397292137146 1.1084603071212769 229 76 76
0.10476060956716537 -0.975947380065918 0.8525323271751404 76 76 229
0.6659201979637146 -0.39126428961753845 1.2024986743927002 76 229 76
4.7984161376953125 -3.9310150146484375 -0.002729517174884677 153 153 153
4.355734348297119 -4.619347095489502 -0.007899155840277672 153 153 153
1.3541821241378784 -1.4979480504989624 1.6340802907943726 229 76 76
0.26030778884887695 -0.4246149957180023 1.2997103929519653 76 76 229
1.7641350030899048 -1.4472256898880005 0.004851869773119688 153 153 153
-1.8561489582061768 -0.3027113676071167 0.009967334568500519 153 153 153
1.3472570180892944 -1.6984353065490723 1.640346646308899 229 76 76
0.30870360136032104 -1.3278921842575073 1.6003742218017578 229 76 76
-4.166654586791992 -2.098468542098999 0.004439173266291618 153 153 153
0.7992352247238159 -1.5889687538146973 1.638780951499939 229 76 76
-0.306308388710022 2.2327661514282227 0.008992320857942104 153 153 153
1.4298745393753052 0.021635811775922775 1.5007116794586182 76 229 76
0.44121813774108887 -1.0595622062683105 0.4462334215641022 229 76 76
-1.6428309679031372 -0.6090171933174133 0.003031529486179352 153 153 153
1.9291367530822754 -4.416323184967041 -0.012385963462293148 153 153 153
3.899258613586426 3.1164379119873047 0.0052353632636368275 153 153 153
-0.9251840114593506 -4.388594627380371 0.006841663271188736 153 153 153
0.3293415307998657 -0.37636280059814453 1.1390960216522217 76 76 229
0.2911527156829834 -1.5243622064590454 0.42735952138900757 229 76 76
-3.821885347366333 2.7942264080047607 -0.0008049958851188421 153 153 153
-2.3224380016326904 1.0397926568984985 0.0054527465254068375 153 153 153
0.7756112217903137 -0.36792996525764465 1.3536927700042725 76 76 229
0.8955551981925964 -0.278913289308548 0.0020037104841321707 153 153 153
-4.454483985900879 -4.119261264801025 -0.0047906837426126 153 153 153
0.770146369934082 0.13618534803390503 1.5173614025115967 76 229 76
0.5707069635391235 0.24584431946277618 0.810236394405365 76 229 76
0.3029201924800873 -0.8008991479873657 1.0836762189865112 229 76 76
3.3003106117248535 4.942020893096924 0.014954248443245888 153 153 153
0.30637192726135254 -0.8809003233909607 0.9160305261611938 229 76 76
0.549675703048706 -0.17494213581085205 0.8162071704864502 76 229 76
1.0134286880493164 -3.368443489074707 0.011758326552808285 153 153 153
-1.175492525100708 -3.629401922225952 0.012943561188876629 153 153 153
4.297946453094482 -0.5158827304840088 -0.020268423482775688 153 153 153
1.1321316957473755 -1.7928537130355835 -0.00529318256303668 153 153 153
0.23472605645656586 -3.290663719177246 -0.014788350090384483 153 153 153
0.8371107578277588 -0.7531425356864929 1.5949666500091553 229 76 76
0.5954840183258057 -0.7736520171165466 1.4416484832763672 229 76 76
1.0620510578155518 -0.17714782059192657 1.5919615030288696 76 229 76
-1.4674052000045776 3.7700629234313965 0.0034439603332430124 153 153 153
-0.5187931060791016 -4.716773986816406 -0.00939222052693367 153 153 153
4.448826789855957 4.710035800933838 0.00983512494713068 153 153 153
-3.9163477420806885 1.9720089435577393 -0.014536556787788868 153 153 153
1.8032965660095215 -4.873660087585449 -0.0018929211655631661 153 153 153
0.05260903388261795 -1.9331635236740112 -0.010685479268431664 153 153 153
4.171932220458984 -3.114825963973999 0.00026932303444482386 153 153 153
1.0976263284683228 -1.4022350311279297 0.4221991002559662 229 76 76
0.8548411726951599 -0.5628541707992554 1.0701361894607544 76 229 76
1.0035046339035034 -0.31625229120254517 1.5307748317718506 76 229 76
-4.1888885498046875 0.9663072824478149 0.006235182750970125 153 153 153
-4.422005653381348 -1.455993413925171 0.0033194622956216335 153 153 153
-1.905261754989624 -4.091062068939209 0.01646270602941513 153 153 153
-4.1610212326049805 2.153264284133911 -0.022712286561727524 153 153 153
-2.221102237701416 3.802266836166382 0.004644178785383701 153 153 153
-2.437790870666504 2.1453301906585693 -0.01535632275044918 153 153 153
0.9978722929954529 -1.0008281469345093 1.7776581048965454 76 76 229
4.166261672973633 -0.44808733463287354 -0.0065633743070065975 153 153 153
3.493010997772217 -0.009742135182023048 -0.001645077602006495 153 153 153
1.9532965421676636 -3.7103283405303955 -0.0014292115811258554 153 153 153
1.163776159286499 0.4724966287612915 1.362725853919983 76 229 76
-2.5132217407226562 -1.8225891590118408 -0.0014417575439438224 153 153 153
-0.6737948656082153 -2.234891653060913 0.02056770771741867 153 153 153
-3.4321632385253906 -1.166529893875122 0.0012586148222908378 153 153 153
0.8063079118728638 -1.2086572647094727 1.804914951324463 76 76 229
-3.899965763092041 -3.7590105533599854 0.004387437831610441 153 153 153
-3.1974058151245117 -3.461272954940796 0.015009697526693344 153 153 153
1.4078898429870605 0.41572439670562744 0.7110952138900757 76 229 76
-1.3154927492141724 3.4398765563964844 -0.0004224086587782949 153 153 153
1.0190380811691284 -1.7667109966278076 0.560380756855011 229 76 76
1.0375665426254272 -0.6831705570220947 1.4434239864349365 76 76 229
2.6075541973114014 2.5419809818267822 -0.011663476005196571 153 153 153
0.14092369377613068 -1.0902057886123657 1.1973040103912354 76 76 229
-3.1505157947540283 3.889875650405884 0.012415914796292782 153 153 153
0.755092203617096 -3.4616551399230957 0.010461140424013138 153 153 153
3.5825464725494385 4.721717357635498 0.017278224229812622 153 153 153
-2.4610180854797363 -0.9428020715713501 -0.007482903078198433 153 153 153
1.3163100481033325 0.06877464801073074 0.4838380813598633 76 229 76
-4.371466636657715 0.7325921654701233 0.023074500262737274 153 153 153
1.4616597890853882 -0.4371294379234314 1.0195657014846802 76 229 76
1.4850842952728271 -0.9359809160232544 0.005350298248231411 153 153 153
-3.0186562538146973 -4.542023658752441 0.005671922583132982 153 153 153
0.6671618223190308 2.676882743835449 0.0005788057460449636 153 153 153
-3.980384349822998 -1.986951470375061 -0.0027726292610168457 153 153 153
1.2269542217254639 -0.7730690836906433 1.538054347038269 229 76 76
-4.275001049041748 -1.1103440523147583 0.016136959195137024 153 153 153
0.6876056790351868 0.047982677817344666 1.4675357341766357 76 229 76
0.4420972466468811 -1.0284709930419922 1.6611065864562988 229 76 76
-0.8560004234313965 1.5528327226638794 0.003358538029715419 153 153 153
3.3044114112854004 3.883098840713501 0.010354077443480492 153 153 153
0.8935742378234863 -0.42763131856918335 1.2462968826293945 76 76 229
0.3958033323287964 -1.2706753015518188 0.8919011950492859 76 76 229
0.8528804183006287 -0.5279008150100708 1.1787174940109253 76 229 76
0.6822618246078491 0.3511998951435089 0.7514089345932007 76 229 76
-2.146132707595825 1.521468997001648 0.009647224098443985 153 153 153
0.789989709854126 -0.38499489426612854 0.6558935046195984 76 76 229
0.5775896310806274 0.7404139637947083 -0.014647847972810268 153 153 153
3.831190586090088 -3.5770373344421387 0.0058564296923577785 153 153 153
0.39309099316596985 -1.7077441215515137 0.4464558959007263 229 76 76
1.4536714553833008 4.0921759605407715 0.007154653314501047 153 153 153
0.12859363853931427 -0.5894784927368164 0.9977073669433594 76 76 229
1.6815297603607178 -1.2186416387557983 1.2358036041259766 229 76 76
-2.8145244121551514 -1.6286648511886597 -0.0023064129054546356 153 153 153
0.872161328792572 -0.7623743414878845 1.0405570268630981 229 76 76
0.8691688776016235 -0.5429174304008484 1.2104220390319824 76 229 76
0.6523922681808472 -1.7613234519958496 0.5895531177520752 229 76 76
0.2970219850540161 -1.0876694917678833 1.629339575767517 229 76 76
0.9779843688011169 -1.024489402770996 -0.009525484405457973 153 153 153
-2.368039608001709 2.2092785835266113 0.003075188724324107 153 153 153
3.9051907062530518 -2.3713552951812744 0.002511376515030861 153 153 153
0.025813668966293335 4.5945281982421875 0.0033181365579366684 153 153 153
2.6810686588287354 -3.042836904525757 -0.00940348394215107 153 153 153
3.9088761806488037 -1.1765433549880981 -0.015548457391560078 153 153 153
4.369339942932129 1.3698534965515137 0.011393662542104721 153 153 153
-0.2819092273712158 2.7031171321868896 0.007584491278976202 153 153 153
-2.0186750888824463 -1.8753565549850464 -0.0015723835676908493 153 153 153
0.3444063365459442 -1.6682555675506592 1.6365957260131836 229 76 76
0.9256904721260071 -4.77246618270874 -0.015401525422930717 153 153 153
-2.2331979274749756 -0.6926847100257874 0.0005645056953653693 153 153 153
0.785805881023407 -0.768917441368103 1.4190367460250854 229 76 76
-1.745692253112793 4.090389728546143 0.010160109028220177 153 153 153
0.9296830296516418 -0.49282512068748474 1.3400243520736694 76 76 229
1.3822356462478638 -0.771989643573761 0.9980114698410034 229 76 76
0.5574967265129089 -0.9146800637245178 1.6430643796920776 229 76 76
-2.2330501079559326 4.5260772705078125 -0.0069764419458806515 153 153 153
1.3714970350265503 -0.8171625733375549 0.011829669587314129 153 153 153
1.7228354215621948 -1.3085883855819702 1.2192001342773438 229 76 76
-3.4738283157348633 2.645829677581787 -0.0005730419652536511 153 153 153
0.23510530591011047 4.299986839294434 0.004174354486167431 153 153 153
-2.1108312606811523 -1.9591771364212036 0.0012417503166943789 153 153 153
0.3307521939277649 -0.3610917627811432 1.7064061164855957 76 76 229
0.39672407507896423 3.9646413326263428 0.020246779546141624 153 153 153
-3.492737054824829 3.4353809356689453 -0.0031929146498441696 153 153 153
2.530014991760254 -4.5660505294799805 -0.01340846810489893 153 153 153
-0.47890907526016235 -4.653562068939209 -0.002941359765827656 153 153 153
-4.099233627319336 -2.2434842586517334 0.010692637413740158 153 153 153
4.697664737701416 -1.5568748712539673 0.004824136849492788 153 153 153
-1.2464944124221802 -1.2959295511245728 0.0005502448184415698 153 153 153
0.4284175932407379 -1.2717249393463135 1.078167200088501 76 76 229
0.7684618830680847 -3.996798515319824 -0.008847212418913841 153 153 153
-1.5470821857452393 -4.540506362915039 0.003761761588975787 153 153 153
-0.9865132570266724 2.784191846847534 -0.0029010078869760036 153 153 153
-4.2682785987854 3.5826523303985596 0.014377184212207794 153 153 153
0.8003630638122559 -1.7736895084381104 1.3625595569610596 229 76 76
-0.32327455282211304 0.06502427160739899 0.021147219464182854 153 153 153
0.7577669024467468 0.46517452597618103 1.1543149948120117 76 229 76
0.8845441937446594 0.515593409538269 1.2368786334991455 76 229 76
0.5441763401031494 -0.7605272531509399 0.47159743309020996 229 76 76
4.847567558288574 2.672386884689331 -0.0036497903056442738 153 153 153
0.39425337314605713 -0.7497997283935547 1.1104408502578735 229 76 76
0.3122101128101349 3.2626800537109375 0.004153120331466198 153 153 153
2.5135934352874756 4.900694847106934 -0.0019216604996472597 153 153 153
0.7774229049682617 -0.4552420675754547 0.756443440914154 76 229 76
-0.5943837761878967 -4.266542434692383 0.00909996684640646 153 153 153
0.7593189477920532 -0.7552805542945862 1.4505082368850708 229 76 76
2.4596176147460938 1.470024585723877 -0.013625123538076878 153 153 153
-1.7818710803985596 0.046012524515390396 -0.017190853133797646 153 153 153
0.6073185801506042 0.0865098237991333 1.3689321279525757 76 229 76
0.5517377257347107 -0.3132472634315491 0.8761042356491089 76 76 229
0.38371336460113525 -0.375519722700119 1.7766282558441162 76 76 229
-4.156367778778076 -4.061603546142578 -0.008867577649652958 153 153 153
0.9149142503738403 -1.1244395971298218 0.449518084526062 229 76 76
0.15771013498306274 -1.0783390998840332 1.2215584516525269 76 76 229
1.0994850397109985 -1.2756584882736206 0.4287523925304413 229 76 76
1.6274209022521973 -3.2777836322784424 0.0116515401750803 153 153 153
0.29645171761512756 -1.2256724834442139 1.0860601663589478 76 76 229
2.6832196712493896 2.1794350147247314 -0.008646654896438122 153 153 153
0.7508941888809204 -0.1078895851969719 0.5173810124397278 76 229 76
4.566020488739014 -2.6402297019958496 0.008058263920247555 153 153 153
1.1079713106155396 -1.2934390306472778 0.4212348759174347 229 76 76
0.7808737754821777 -0.3410789668560028 0.641991913318634 76 229 76
0.9272434711456299 -0.540777862071991 1.1884654760360718 76 229 76
1.0583888292312622 -0.8798409104347229 1.0196788311004639 76 76 229
-3.616459369659424 4.947368144989014 -0.0010255941888317466 153 153 153
1.2314424514770508 -0.4135226011276245 1.4283047914505005 76 229 76
-3.941479206085205 -3.0642952919006348 -0.004601156804710627 153 153 153
0.8130224943161011 -0.1892215758562088 1.502470850944519 76 229 76
-3.4427175521850586 4.162174224853516 -0.00439315615221858 153 153 153
-1.233038306236267 -2.883558750152588 -0.008640142157673836 153 153 153
0.7387769818305969 0.18690051138401031 1.4551130533218384 76 229 76
-1.8738081455230713 -3.6039130687713623 0.009210835210978985 153 153 153
0.44105225801467896 -0.3152655065059662 1.8551599979400635 76 76 229
-3.773153066635132 -0.24188652634620667 0.013184108771383762 153 153 153
3.089054822921753 -3.9477591514587402 0.0035998844541609287 153 153 153
0.7037211060523987 -3.3966317176818848 0.004413250368088484 153 153 153
-2.6289381980895996 2.192786931991577 -0.002476641209796071 153 153 153
0.6102541089057922 -0.12883232533931732 0.6995977163314819 76 229 76
1.111574649810791 -1.2882601022720337 0.4347463548183441 229 76 76
-3.1839494705200195 3.274940013885498 0.005090131890028715 153 153 153
1.6299220323562622 0.18040703237056732 0.986373245716095 76 229 76
3.554029941558838 1.171209692955017 0.0015053150709718466 153 153 153
4.957664489746094 -2.489292621612549 -0.005133108235895634 153 153 153
1.7014678716659546 -1.1590718030929565 0.6275182962417603 229 76 76
-0.652366042137146 2.6116244792938232 -0.009396661072969437 153 153 153
1.7000645399093628 -1.2882590293884277 1.0584166049957275 229 76 76
0.6252687573432922 -1.7766672372817993 0.5110965371131897 229 76 76
-4.9044389724731445 4.854076385498047 -0.0025545526295900345 153 153 153
-3.4161033630371094 3.719937562942505 0.0075151389464735985 153 153 153
1.5006232261657715 -0.30639681220054626 0.7163179516792297 76 229 76
1.4881930351257324 -1.1574138402938843 0.4421083927154541 229 76 76
4.66304349899292 -2.1422972679138184 0.001989649375900626 153 153 153
2.1017513275146484 0.08637459576129913 -0.0034767549950629473 153 153 153
-4.558513164520264 2.3881566524505615 0.0012309952871873975 153 153 153
0.6349447965621948 -0.2213631421327591 1.33599054813385 76 229 76
3.5232481956481934 1.305356502532959 0.006946831475943327 153 153 153
1.1131856441497803 -2.037160634994507 0.004184686113148928 153 153 153
-3.052328586578369 4.376279830932617 0.010384653694927692 153 153 153
-3.4781150817871094 3.38753342628479 0.001305644167587161 153 153 153
0.3418229818344116 -0.3578687906265259 1.1016261577606201 76 76 229
0.7181598544120789 -0.780422568321228 1.5113534927368164 229 76 76
0.6339623928070068 -0.3257652819156647 1.6555566787719727 76 76 229
-4.1412553787231445 2.556680202484131 -0.01653868332505226 153 153 153
1.5947132110595703 0.252888947725296 0.8734980821609497 76 229 76
1.044410228729248 -0.8706205487251282 0.9005386233329773 76 76 229
-4.097574710845947 -3.4676504135131836 -0.004423628561198711 153 153 153
-4.588299751281738 -1.163266897201538 0.004838247783482075 153 153 153
0.15233656764030457 -0.5694459080696106 1.406633973121643 76 76 229
-2.64650297164917 1.0712212324142456 0.020878490060567856 153 153 153
0.9703593850135803 0.12959474325180054 0.43796855211257935 76 229 76
4.143711090087891 4.287296295166016 0.01844959519803524 153 153 153
0.7202767729759216 -0.35522013902664185 1.3357030153274536 76 229 76
0.40167394280433655 -0.3389737606048584 1.6047695875167847 76 76 229
0.6284235715866089 -0.7719860076904297 1.111772894859314 229 76 76
0.7271963953971863 -0.32727882266044617 1.0306615829467773 76 76 229
1.0018129348754883 -0.5884040594100952 1.420157790184021 76 76 229
-4.4688920974731445 4.1096649169921875 -0.002434506779536605 153 153 153
1.693202257156372 -1.75230872631073 1.5415706634521484 229 76 76
0.07243984192609787 -0.8774431943893433 1.655898928642273 76 76 229
1.024703025817871 -1.9848922491073608 -0.0025228741578757763 153 153 153
1.2791268825531006 -1.7894327640533447 1.4880642890930176 229 76 76
-3.389496326446533 -3.8888938426971436 0.003529020119458437 153 153 153
2.5158042907714844 4.062572479248047 0.003599114716053009 153 153 153
-4.2675957679748535 0.13224320113658905 -0.013200885616242886 153 153 153
-2.535936117172241 4.000292778015137 0.005637669935822487 153 153 153
-2.5140461921691895 -4.076183319091797 0.001991872675716877 153 153 153
1.7218266725540161 -1.6635000705718994 0.84537273645401 229 76 76
-0.10645071417093277 -4.217530250549316 0.012712374329566956 153 153 153
0.19042055308818817 -1.1277694702148438 0.9545542597770691 76 76 229
0.5542352199554443 -0.31550872325897217 0.6662863492965698 76 76 229
4.519983291625977 1.3919252157211304 0.0038434898015111685 153 153 153
1.708469033241272 -1.126025676727295 0.9768484234809875 229 76 76
1.4596750736236572 -0.7628709077835083 1.4335719347000122 229 76 76
-0.6454786062240601 -1.0785688161849976 -0.006598741747438908 153 153 153
0.36380210518836975 -1.2522751092910767 1.914642333984375 76 76 229
-3.678546667098999 1.5540599822998047 0.0065541076473891735 153 153 153
0.6550483107566833 -0.7833642363548279 0.9947693943977356 229 76 76
-3.252504348754883 0.8297669291496277 -0.012868808582425117 153 153 153
2.0736005306243896 4.096055030822754 -0.013474024832248688 153 153 153
0.21689724922180176 -1.1595529317855835 1.630982518196106 76 76 229
0.695855438709259 -1.2755049467086792 1.995448350906372 76 76 229
-3.0048327445983887 -4.125595569610596 -0.0029289610683918 153 153 153
0.9265992045402527 0.32225874066352844 1.483391523361206 76 229 76
4.444998264312744 -4.853834629058838 0.0043106176890432835 153 153 153
0.5323930382728577 -1.4142389297485352 0.450964093208313 229 76 76
2.4648070335388184 -1.8557840585708618 0.0012121435720473528 153 153 153
4.2462873458862305 2.951505661010742 0.011663353070616722 153 153 153
-3.5694947242736816 -1.123184084892273 0.0030499643180519342 153 153 153
1.7099791765213013 -1.1546525955200195 0.4738442897796631 229 76 76
-4.346179485321045 -4.2020087242126465 0.008725491352379322 153 153 153
0.0864744633436203 -0.972223699092865 0.8249548673629761 76 76 229
0.38190293312072754 -0.7569375038146973 1.2956746816635132 229 76 76
0.36923864483833313 -1.5263196229934692 1.6321264505386353 229 76 76
0.3016226589679718 -0.907355785369873 1.0344854593276978 229 76 76
-1.5495048761367798 0.9886825084686279 -0.009923513047397137 153 153 153
0.06674207746982574 4.6301751136779785 0.013052370399236679 153 153 153
0.6915180683135986 -1.1014317274093628 1.6298329830169678 229 76 76
-3.9062466621398926 -1.4150021076202393 0.0028928862884640694 153 153 153
-0.6428017020225525 -0.04336929693818092 -0.0036269440315663815 153 153 153
-0.3468506932258606 -4.037508010864258 0.005630688741803169 153 153 153
1.3121600151062012 2.8173153400421143 0.0012301367241889238 153 153 153
0.30112025141716003 -1.2558436393737793 1.541422963142395 229 76 76
0.8109725117683411 -4.740228176116943 0.0024259500205516815 153 153 153
1.27029287815094 0.04750533774495125 -0.008594097569584846 153 153 153
0.31622305512428284 -1.7429838180541992 0.8453146815299988 229 76 76
-2.7297394275665283 2.262929677963257 0.0011195986298844218 153 153 153
-2.3012781143188477 -3.0834829807281494 -0.0007988965371623635 153 153 153
1.5404399633407593 -1.4742661714553833 -0.00768223637714982 153 153 153
1.6701821088790894 -1.5631167888641357 0.4505074620246887 229 76 76
-4.937132835388184 -1.1400601863861084 0.0010748462518677115 153 153 153
0.841507613658905 -1.5961172580718994 0.4376172423362732 229 76 76
-2.7516441345214844 -0.5051620602607727 0.005176359321922064 153 153 153
0.1415717750787735 -1.0781769752502441 1.3799127340316772 76 76 229
0.6113711595535278 -0.004916047677397728 1.3848832845687866 76 229 76
1.0098212957382202 -0.18405753374099731 1.5534087419509888 76 229 76
0.09098120033740997 -0.7079434394836426 1.6810054779052734 76 76 229
1.1607468128204346 -0.7763205170631409 1.2254470586776733 229 76 76
0.9585702419281006 -0.7593011260032654 1.0444962978363037 229 76 76
0.11955592036247253 -1.026542067527771 2.054481267929077 76 76 229
0.8995504975318909 -1.1513375043869019 1.5217912197113037 76 76 229
1.43492591381073 0.3776438534259796 1.2826356887817383 76 229 76
0.6962363719940186 0.26309505105018616 1.370685338973999 76 229 76
0.6682027578353882 -1.4774539470672607 1.6342015266418457 229 76 76
-2.0632338523864746 0.4764285981655121 -0.015538978390395641 153 153 153
0.23666825890541077 -1.1681774854660034 0.8145778179168701 76 76 229
0.5560415983200073 -1.3010084629058838 1.0061990022659302 76 76 229
1.1827821731567383 -0.5584765672683716 0.8552336692810059 76 229 76
1.9265602827072144 -2.9104626178741455 -0.014078143052756786 153 153 153
0.2987801730632782 -1.0134357213974 1.2907720804214478 229 76 76
0.5630843043327332 -1.2910711765289307 1.8780707120895386 76 76 229
0.2855585813522339 -1.1770853996276855 0.696805477142334 76 76 229
1.6283888816833496 0.010116660967469215 1.2088260650634766 76 229 76
0.317370742559433 -0.8796694278717041 1.133522391319275 229 76 76
1.0339163541793823 -0.917898416519165 1.8712087869644165 76 76 229
0.4577929973602295 -0.33842331171035767 1.975482702255249 76 76 229
-1.6216695308685303 -1.674025535583496 0.011592336930334568 153 153 153
4.722827434539795 2.1673452854156494 -0.00841732881963253 153 153 153
1.168447494506836 -1.6191648244857788 1.6272947788238525 229 76 76
1.043265700340271 -0.7761469483375549 1.4911768436431885 76 76 229
-0.7017518281936646 2.2716708183288574 0.010819408111274242 153 153 153
1.0677911043167114 -1.759460210800171 1.0336899757385254 229 76 76
0.2354380190372467 -1.1830856800079346 0.9019572138786316 76 76 229
0.6922072768211365 0.05379045009613037 0.576492428779602 76 229 76
4.559027671813965 -2.759469509124756 -0.009990117512643337 153 153 153
0.9872297644615173 -1.0302040576934814 1.874564290046692 76 76 229
-4.059157848358154 -4.288682460784912 -0.008076448924839497 153 153 153
4.915931224822998 4.529056549072266 0.0028615149203687906 153 153 153
-3.7733278274536133 -1.5198112726211548 0.010101947002112865 153 153 153
0.9598096609115601 -1.3201667070388794 0.42497795820236206 229 76 76
-2.8182284832000732 -1.1646106243133545 0.027954692021012306 153 153 153
0.31679993867874146 -1.3113774061203003 1.3001458644866943 229 76 76
0.995233416557312 -1.0250823497772217 1.48749840259552 76 76 229
-1.5413556098937988 3.5168473720550537 -0.001501188613474369 153 153 153
1.5639607906341553 -0.7574352622032166 1.0865131616592407 229 76 76
2.634310722351074 3.8149526119232178 0.0018507017521187663 153 153 153
-2.7843124866485596 3.2767014503479004 0.013942510820925236 153 153 153
4.3972649574279785 2.095752239227295 -0.01472784299403429 153 153 153
1.427063226699829 -1.7556101083755493 1.3195240497589111 229 76 76
2.891378402709961 5.006314754486084 -0.0035866673570126295 153 153 153
0.816838800907135 0.5186276435852051 1.082012414932251 76 229 76
1.2783507108688354 0.09890640527009964 0.4819251596927643 76 229 76
1.0910447835922241 -3.521028995513916 0.0006083575426600873 153 153 153
0.5161558389663696 -0.3182387351989746 0.6860253214836121 76 76 229
3.2330150604248047 -0.14072947204113007 0.00616026995703578 153 153 153
-4.675640106201172 -4.163129806518555 -0.005159423220902681 153 153 153
1.5488803386688232 0.34404081106185913 1.123246192932129 76 229 76
0.5544670224189758 -1.7795244455337524 1.055969476699829 229 76 76
-0.4666707217693329 1.5428638458251953 -0.006940852385014296 153 153 153
0.2232351005077362 -1.1624813079833984 1.618373990058899 76 76 229
3.6203019618988037 3.377981424331665 -0.004040373023599386 153 153 153
-0.0003390582278370857 -0.3436938524246216 0.0013015628792345524 153 153 153
0.16049933433532715 -0.5059281587600708 0.8434075713157654 76 76 229
1.4248276948928833 0.10650667548179626 0.5500803589820862 76 229 76
0.06027545779943466 -0.8153995275497437 1.466085433959961 76 76 229
0.37167590856552124 -0.34428030252456665 1.8297972679138184 76 76 229
0.13644151389598846 0.139553040266037 0.008454563096165657 153 153 153
-1.1398435831069946 4.235228061676025 0.0017935825744643807 153 153 153
0.3234688937664032 -1.2689316272735596 1.1310080289840698 229 76 76
2.86155366897583 4.089824199676514 -0.004336308687925339 153 153 153
1.0484929084777832 -1.7778513431549072 0.8060327172279358 229 76 76
0.8221494555473328 -1.4533909559249878 1.6445232629776 229 76 76
-1.7924610376358032 -3.2638533115386963 -0.01224740780889988 153 153 153
1.316203236579895 -0.5264125466346741 0.8572950959205627 76 229 76
3.078902006149292 4.289459705352783 -0.012316149659454823 153 153 153
2.294593095779419 -3.419187545776367 0.005428828299045563 153 153 153
-4.679501056671143 -3.266399383544922 -0.009379053488373756 153 153 153
0.9274733066558838 -0.4781535565853119 0.7523584365844727 76 76 229
0.506726086139679 -0.04014531150460243 1.0115164518356323 76 229 76
4.579209327697754 -3.844252109527588 0.000274491379968822 153 153 153
1.0451712608337402 0.5617883205413818 0.816371738910675 76 229 76
1.7203871011734009 -0.8893039226531982 1.1858478784561157 229 76 76
0.1746697574853897 -0.4960383474826813 1.2838479280471802 76 76 229
0.05847114324569702 -0.7840662598609924 1.4948256015777588 76 76 229
0.3115216791629791 -1.6217349767684937 1.227651596069336 229 76 76
0.9858869910240173 -0.5667092204093933 1.9574990272521973 76 76 229
4.124636650085449 4.787831783294678 0.015439225360751152 153 153 153
-0.23979678750038147 1.809404730796814 -0.0022588330321013927 153 153 153
1.697956919670105 -1.2780406475067139 1.5424060821533203 229 76 76
0.3211602568626404 -1.742293357849121 0.598239004611969 229 76 76
1.5946104526519775 -0.9953940510749817 1.6442559957504272 229 76 76
0.08269907534122467 -0.8148925304412842 1.5213550329208374 76 76 229
2.1294052600860596 1.5918618440628052 -0.000999458716250956 153 153 153
-4.87468957901001 -4.869113445281982 -0.007982248440384865 153 153 153
0.5048511028289795 -1.4769710302352905 1.636713981628418 229 76 76
4.930330276489258 1.0201345682144165 0.004607584793120623 153 153 153
2.9683408737182617 2.5612893104553223 0.001229290384799242 153 153 153
-4.011631965637207 -2.6184654235839844 0.015277694910764694 153 153 153
0.9097866415977478 -0.536084771156311 0.8626477122306824 76 229 76
-1.094529151916504 -4.002715587615967 -0.0018468876369297504 153 153 153
2.403844118118286 -3.671020746231079 0.0016740038990974426 153 153 153
-2.71368670463562 4.267924785614014 0.0030827370937913656 153 153 153
2.3034300804138184 -1.2201906442642212 0.008631054311990738 153 153 153
1.3825864791870117 0.10773685574531555 -0.0008845590054988861 153 153 153
2.833771228790283 -3.5934383869171143 -0.008762102574110031 153 153 153
1.5030910968780518 2.845062255859375 -0.0035202940925955772 153 153 153
0.8329139351844788 -1.2020922899246216 1.401839256286621 76 76 229
0.28868457674980164 -1.2019963264465332 0.8404560685157776 76 76 229
2.23256516456604 1.8137013912200928 0.005588146857917309 153 153 153
1.1622165441513062 -0.8672389984130859 0.007528690621256828 153 153 153
1.585524082183838 0.23426486551761627 1.2304606437683105 76 229 76
0.9974642395973206 -0.9835454821586609 0.8292719125747681 76 76 229
0.3144087791442871 -1.3338415622711182 1.4964385032653809 229 76 76
4.503920555114746 4.6571760177612305 -0.0061765797436237335 153 153 153
-0.7386226654052734 -0.08832976222038269 0.0057967244647443295 153 153 153
2.7137508392333984 -1.1450526714324951 0.008940921165049076 153 153 153
-1.9488953351974487 -4.065099239349365 0.002000851323828101 153 153 153
3.979205369949341 -2.7030436992645264 -0.01740875653922558 153 153 153
0.7076814770698547 -1.2630407810211182 0.6909654140472412 76 76 229
0.9876226186752319 -1.0252420902252197 1.4719282388687134 76 76 229
0.6942383050918579 -0.4438517689704895 1.0793150663375854 76 229 76
1.1445884704589844 -1.5854287147521973 1.6294193267822266 229 76 76
-4.308011531829834 1.6835323572158813 -0.005798392929136753 153 153 153
0.7502650618553162 -0.490320086479187 -0.012138071469962597 153 153 153
0.7033556699752808 -1.2859128713607788 1.3235225677490234 76 76 229
3.8253262042999268 -3.4733734130859375 0.013740471564233303 153 153 153
0.4716925024986267 -1.3175392150878906 0.4449860751628876 229 76 76
1.260003924369812 -0.11459016799926758 0.47723743319511414 76 229 76
-4.4875102043151855 -2.0240912437438965 0.019530920311808586 153 153 153
0.1385641098022461 -2.617499828338623 0.006608795374631882 153 153 153
0.6421470046043396 -0.3309246003627777 1.1130616664886475 76 76 229
1.6089298725128174 -1.6352797746658325 1.6488149166107178 229 76 76
0.5011658072471619 -1.0550435781478882 0.45493653416633606 229 76 76
2.1263675689697266 -3.7217345237731934 -0.0005878654774278402 153 153 153
-3.874185085296631 -3.2248027324676514 0.0026682668831199408 153 153 153
0.08659282326698303 -0.6502761244773865 1.5461323261260986 76 76 229
0.9852281808853149 -1.0302777290344238 0.7379120588302612 76 76 229
1.2980880737304688 -0.7704176306724548 1.554013967514038 229 76 76
1.0205450057983398 -0.9021996855735779 1.9779292345046997 76 76 229
0.3036741018295288 -1.3696937561035156 0.7529216408729553 229 76 76
-4.840704917907715 -1.8414678573608398 -0.014167498797178268 153 153 153
3.5183920860290527 -3.8298897743225098 -0.015566568821668625 153 153 153
0.7146964073181152 -1.7787773609161377 0.5136237144470215 229 76 76
0.347768634557724 0.3834812045097351 0.0015373715432360768 153 153 153
1.040830135345459 -0.8699488639831543 0.9669997692108154 76 76 229
1.1522607803344727 -0.6004810929298401 1.0796375274658203 76 229 76
0.7580122947692871 -1.2954388856887817 1.6445375680923462 229 76 76
1.2599272727966309 0.03367398679256439 0.006189752835780382 153 153 153
0.3572547435760498 -1.4408994913101196 1.6630356311798096 229 76 76
4.510462760925293 -4.695778846740723 -0.0021417478565126657 153 153 153
1.6123381853103638 0.20331808924674988 0.8333197832107544 76 229 76
0.947202742099762 -1.7629743814468384 0.9958600997924805 229 76 76
1.2191988229751587 -0.7712626457214355 1.3096156120300293 229 76 76
-3.296853542327881 -2.757499933242798 -0.001400898676365614 153 153 153
0.3697277307510376 -0.3537070155143738 0.688934326171875 76 76 229
3.893787384033203 -3.85417103767395 -0.0159526988863945 153 153 153
2.0666959285736084 -1.8288369178771973 0.007652488071471453 153 153 153
2.107191562652588 -3.5998504161834717 0.014876915141940117 153 153 153
0.09330592304468155 -0.9563304781913757 0.9784393906593323 76 76 229
1.059616208076477 4.715888023376465 0.004175033885985613 153 153 153
1.4894142150878906 -1.0185027122497559 1.6277430057525635 229 76 76
0.6439317464828491 -1.2938356399536133 0.7534703016281128 76 76 229
1.405915379524231 -0.13479623198509216 0.5220265984535217 76 229 76
2.157097578048706 -3.8273513317108154 0.018751218914985657 153 153 153
1.2069058418273926 -0.36222919821739197 0.5559067726135254 76 229 76
0.3297898769378662 -0.2240809202194214 -0.0070738596841692924 153 153 153
2.398777723312378 1.4617630243301392 0.015079362317919731 153 153 153
0.9495068192481995 3.2933685779571533 0.00391489127650857 153 153 153
0.6584368348121643 -1.2276972532272339 1.6120011806488037 229 76 76
4.865172863006592 -4.798215866088867 0.009719724766910076 153 153 153
1.361181616783142 0.369690865278244 1.3701947927474976 76 229 76
1.043776035308838 -0.4737045168876648 0.637372612953186 76 229 76
0.6348665952682495 -1.7599362134933472 0.9177748560905457 229 76 76
2.9016799926757812 -3.6124608516693115 -0.0021679960191249847 153 153 153
-2.4959535598754883 4.762880325317383 0.022230977192521095 153 153 153
0.6774608492851257 0.2341660112142563 1.384371042251587 76 229 76
0.8800534009933472 -0.44476932287216187 1.342543601989746 76 76 229
2.3760156631469727 -4.630642890930176 -0.008228026330471039 153 153 153
-2.412142515182495 3.8276054859161377 -0.0015144229400902987 153 153 153
1.1180418729782104 -1.3221533298492432 0.45561015605926514 229 76 76
1.6920093297958374 0.9118834733963013 0.014235440641641617 153 153 153
1.5118117332458496 -0.9989530444145203 0.44201359152793884 229 76 76
0.3132097125053406 -1.2337684631347656 0.6543452739715576 76 76 229
1.3300870656967163 0.41426271200180054 1.3424787521362305 76 229 76
2.9539992809295654 -0.23358149826526642 0.0018738239305093884 153 153 153
-2.365159749984741 -4.3090081214904785 0.00299268402159214 153 153 153
0.9783391356468201 0.5560166239738464 0.909307599067688 76 229 76
0.8472093343734741 0.4450169801712036 0.7040262818336487 76 229 76
0.5435710549354553 1.9929401874542236 -0.0015875474782660604 153 153 153
0.7131713032722473 -1.2741739749908447 0.9426883459091187 76 76 229
1.7399566173553467 -0.15043549239635468 -0.0017462350660935044 153 153 153
0.2435205727815628 -1.1744561195373535 1.6512349843978882 76 76 229
0.7133580446243286 -1.2538349628448486 1.1990901231765747 76 76 229
0.7930921316146851 -1.789775013923645 0.932969868183136 229 76 76
0.9212407469749451 -1.1340281963348389 1.6863371133804321 76 76 229
1.0476852655410767 -0.8269253969192505 1.7299474477767944 76 76 229
-2.1232032775878906 1.5986191034317017 0.004323796834796667 153 153 153
0.6578620672225952 -1.0832267999649048 1.649922251701355 229 76 76
1.3753446340560913 -0.4677058160305023 1.2106266021728516 76 229 76
2.0136544704437256 0.390311062335968 0.004105712752789259 153 153 153
0.7390832304954529 -0.39885425567626953 1.3118643760681152 76 229 76
-2.344918727874756 -2.7739551067352295 -0.005816978868097067 153 153 153
1.4368267059326172 0.4256792366504669 1.1979877948760986 76 229 76
1.019911527633667 -3.53790020942688 0.012949611991643906 153 153 153
0.382127046585083 -0.3431349992752075 1.6215016841888428 76 76 229
4.705794334411621 -3.790881872177124 0.0036148622166365385 153 153 153
1.0371174812316895 -0.7710835933685303 0.4868631958961487 229 76 76
0.7177684903144836 0.4039384126663208 1.225846767425537 76 229 76
0.9170171618461609 2.7561488151550293 0.005187870003283024 153 153 153
1.1639212369918823 -0.7808874249458313 0.49524906277656555 229 76 76
0.6242614984512329 0.2312612384557724 1.2971391677856445 76 229 76
3.7364792823791504 3.0184409618377686 0.004344327840954065 153 153 153
0.7769303917884827 -0.7682403326034546 1.411098837852478 229 76 76
2.476465940475464 -1.0100518465042114 -0.017015669494867325 153 153 153
1.704584002494812 -1.2712458372116089 1.6255279779434204 229 76 76
0.839975893497467 -1.2082488536834717 1.912052035331726 76 76 229
4.01753568649292 -0.4069042205810547 -0.004740340169519186 153 153 153
-0.8214595913887024 -2.8851075172424316 -0.0033507836051285267 153 153 153
0.6889153718948364 0.3625299036502838 1.246543049812317 76 229 76
0.3381336033344269 -4.099941253662109 -0.02026222087442875 153 153 153
1.2544673681259155 -0.7731871604919434 0.4819492697715759 229 76 76
0.3620494604110718 1.0616716146469116 0.004717494826763868 153 153 153
1.5417381525039673 -0.019476359710097313 -0.0013851836556568742 153 153 153
-4.8693318367004395 4.466269493103027 -0.009034108370542526 153 153 153
1.365616798400879 0.4658755660057068 0.8403254151344299 76 229 76
0.5451874136924744 0.11151692271232605 1.2639918327331543 76 229 76
0.08726859092712402 -0.9113914966583252 1.1221510171890259 76 76 229
0.485635370016098 0.034011829644441605 0.9284226298332214 76 229 76
0.9296054840087891 0.12317068874835968 0.47712433338165283 76 229 76
-0.40830862522125244 -0.5571661591529846 0.00038000987842679024 153 153 153
-3.897019863128662 -4.748155117034912 -0.0008899745880626142 153 153 153
0.8918771743774414 -0.4947867691516876 0.7100573778152466 76 229 76
3.041102647781372 -3.5183677673339844 0.0033713916782289743 153 153 153
1.9707906246185303 0.800898015499115 -0.01211584359407425 153 153 153
-3.341780424118042 3.7892510890960693 0.0013112281449139118 153 153 153
1.0337376594543457 -0.9384958148002625 1.2624436616897583 76 76 229
1.1907541751861572 0.5360584259033203 0.876397430896759 76 229 76
0.5113903284072876 -0.7679802179336548 0.43192291259765625 229 76 76
0.6565627455711365 -0.31854885816574097 0.8447725176811218 76 76 229
-4.297946929931641 -1.1592506170272827 -0.020399220287799835 153 153 153
-4.770777225494385 2.2539353370666504 -0.0034886151552200317 153 153 153
1.7182865142822266 -1.4725545644760132 0.555884838104248 229 76 76
0.025308910757303238 -3.6288974285125732 -0.005258241202682257 153 153 153
0.9809341430664062 -1.0449206829071045 1.66422438621521 76 76 229
0.44209563732147217 -0.3402954041957855 0.8851214647293091 76 76 229
-2.830670118331909 0.20555204153060913 -0.01558187510818243 153 153 153
0.3117091953754425 -1.068063497543335 0.9338884353637695 229 76 76
-2.822437047958374 -0.8283348083496094 -0.007349491585046053 153 153 153
2.089405059814453 -3.6092824935913086 -0.004105741623789072 153 153 153
1.5161453485488892 -1.1578333377838135 0.454712450504303 229 76 76
1.1222940683364868 -1.6560473442077637 0.4318963885307312 229 76 76
-4.99828577041626 4.3607258796691895 -0.0007504085660912097 153 153 153
-1.0209851264953613 -0.19664959609508514 0.0019731365609914064 153 153 153
0.8385493755340576 -0.11282279342412949 0.483883261680603 76 229 76
0.2754124104976654 -0.38382822275161743 0.8116771578788757 76 76 229
3.211014986038208 -2.693004846572876 -0.015816515311598778 153 153 153
1.4682815074920654 -0.7612239122390747 1.3638213872909546 229 76 76
0.5747269988059998 -0.30939286947250366 1.8850001096725464 76 76 229
2.8196768760681152 2.4403483867645264 0.0026122762355953455 153 153 153
4.6001081466674805 -0.5350658297538757 -0.004450720734894276 153 153 153
-0.16007909178733826 -0.7268969416618347 -0.005908580496907234 153 153 153
0.4984343349933624 -0.3230847120285034 1.9044419527053833 76 76 229
1.3517558574676514 -0.4801289737224579 0.8081072568893433 76 229 76
0.8954633474349976 -1.1542214155197144 1.8771594762802124 76 76 229
4.771780967712402 -4.567652702331543 0.0003688318538479507 153 153 153
3.4939355850219727 -3.2757744789123535 0.002755367662757635 153 153 153
1.0951985120773315 -1.7782654762268066 0.4389096796512604 229 76 76
0.4874269962310791 -3.1924796104431152 0.013408561237156391 153 153 153
1.0301865339279175 -0.8053411245346069 1.4534497261047363 76 76 229
1.3697137832641602 -0.34103894233703613 -0.011601543985307217 153 153 153
1.4283090829849243 0.15518373250961304 1.4626351594924927 76 229 76
-3.7510619163513184 -2.8749947547912598 -0.013396774418652058 153 153 153
0.20852023363113403 -2.9052212238311768 0.013397038914263248 153 153 153
-1.8324791193008423 3.5856263637542725 -0.004086457658559084 153 153 153
3.692148447036743 4.402496814727783 0.016481593251228333 153 153 153
1.6966633796691895 -1.0870871543884277 1.5213637351989746 229 76 76
0.9777203798294067 -1.0252207517623901 1.0537055730819702 76 76 229
1.3312063217163086 0.47636523842811584 0.8084301948547363 76 229 76
0.7214162349700928 -1.817090630531311 0.02548118866980076 153 153 153
-2.986158609390259 0.4074018895626068 0.012962075881659985 153 153 153
0.6777772903442383 1.1672543287277222 0.004402799066156149 153 153 153
3.178008556365967 -4.436906814575195 0.004047164227813482 153 153 153
0.17740118503570557 -0.5017237663269043 1.979040265083313 76 76 229
-1.223451018333435 2.1883881092071533 0.0008470799657516181 153 153 153
-2.745415449142456 2.518622875213623 -0.0215764082968235 153 153 153
2.6227872371673584 -0.041623830795288086 -0.001356618944555521 153 153 153
3.0763795375823975 -0.4136536121368408 0.0032273198012262583 153 153 153
0.5599650144577026 0.2566341757774353 0.9298667311668396 76 229 76
-3.481536388397217 -1.5026298761367798 0.006014044396579266 153 153 153
0.14139601588249207 -1.0691821575164795 1.6211090087890625 76 76 229
1.728018879890442 -0.9270985126495361 0.8934472799301147 229 76 76
3.372032403945923 -1.0883564949035645 -0.014367548748850822 153 153 153
3.646275043487549 -2.5999133586883545 -0.005346204154193401 153 153 153
1.3393133878707886 0.11147987842559814 1.5238304138183594 76 229 76
-3.712660551071167 -2.1207525730133057 -0.002460033632814884 153 153 153
1.7142852544784546 -1.6351262331008911 1.3323900699615479 229 76 76
2.031151294708252 -2.3579652309417725 0.0021016017999500036 153 153 153
0.7395821809768677 -1.7761644124984741 0.943943977355957 229 76 76
-0.6752613186836243 4.742495059967041 -0.0043064262717962265 153 153 153
1.704066276550293 -0.9601693749427795 0.9275554418563843 229 76 76
0.4006878733634949 -4.237360000610352 0.007486604154109955 153 153 153
1.681815505027771 -0.8632569909095764 0.8106091618537903 229 76 76
0.8146185278892517 -0.5507464408874512 0.9043055176734924 76 229 76
1.3596432209014893 0.28988733887672424 1.4342646598815918 76 229 76
2.778705358505249 3.650979995727539 -0.0017435261979699135 153 153 153
1.7049607038497925 -1.6934151649475098 0.5442897081375122 229 76 76
4.475409030914307 -1.5934333801269531 -0.012039157561957836 153 153 153
0.38350605964660645 -1.7707008123397827 1.2443569898605347 229 76 76
0.793257474899292 0.3284306228160858 1.4091787338256836 76 229 76
-3.2692384719848633 4.359468936920166 -0.010128017514944077 153 153 153
-3.998915195465088 4.749516010284424 0.012546520680189133 153 153 153
-2.952296018600464 -1.5425668954849243 0.009493851102888584 153 153 153
1.0897068977355957 -0.44673436880111694 0.6196672916412354 76 229 76
0.982225775718689 -1.0341036319732666 1.675889492034912 76 76 229
-3.548593521118164 -3.326812505722046 -0.0020797355100512505 153 153 153
1.3228954076766968 -0.7757413387298584 1.0207633972167969 229 76 76
1.5819257497787476 -0.1528557538986206 0.7250609397888184 76 229 76
1.0306117534637451 -0.9445216655731201 1.9097998142242432 76 76 229
1.1304837465286255 -0.7688508033752441 0.780524730682373 229 76 76
0.7245808243751526 -0.08319377899169922 1.4868804216384888 76 229 76
1.0330463647842407 0.0196506567299366 1.6217808723449707 76 229 76
-0.834395706653595 -2.7786459922790527 0.014729151502251625 153 153 153
-1.881537914276123 4.063507556915283 -0.012910989113152027 153 153 153
0.4244832694530487 -1.2394782304763794 0.44639867544174194 229 76 76
-1.5740203857421875 -4.5962066650390625 -0.002965193009003997 153 153 153
3.5845937728881836 4.568056106567383 -0.01046279352158308 153 153 153
-1.8889517784118652 3.2993879318237305 -0.012182436883449554 153 153 153
-0.7619472146034241 -0.40113815665245056 0.005194543395191431 153 153 153
0.28555789589881897 -0.4041266143321991 1.9062790870666504 76 76 229
2.7316458225250244 3.41498064994812 -0.009051060304045677 153 153 153
0.7329961657524109 -1.4838075637817383 1.6433786153793335 229 76 76
-1.9382092952728271 4.867743492126465 -0.015998033806681633 153 153 153
0.7885963916778564 -0.3657382130622864 1.7218379974365234 76 76 229
-4.046406269073486 4.4116597175598145 0.0073678214102983475 153 153 153
0.5350818037986755 -2.832536458969116 0.011266248300671577 153 153 153
1.145896553993225 0.10371168702840805 1.6180716753005981 76 229 76
0.3469272553920746 -1.2378309965133667 0.9908985495567322 76 76 229
1.0360054969787598 -0.7480829954147339 1.018395185470581 76 76 229
0.9358984231948853 0.7120488286018372 0.020576072856783867 153 153 153
1.6888759136199951 -0.760044515132904 1.2035372257232666 229 76 76
-2.130735397338867 1.6246182918548584 -0.006413374096155167 153 153 153
0.5054160356521606 -1.5838969945907593 0.43020081520080566 229 76 76
0.07921484112739563 -0.7299517393112183 1.7169526815414429 76 76 229
0.762139618396759 0.118862584233284 0.527431309223175 76 229 76
-1.407448172569275 -0.08786557614803314 0.0059842499904334545 153 153 153
3.8448123931884766 -3.8600878715515137 0.0040118079632520676 153 153 153
0.0023298123851418495 -1.568888545036316 -0.004725204780697823 153 153 153
4.511270046234131 -4.212262153625488 0.015681203454732895 153 153 153
1.3098564147949219 0.32292506098747253 1.4664210081100464 76 229 76
1.2457139492034912 -0.08385737240314484 0.016613859683275223 153 153 153
1.0970221757888794 0.22231586277484894 0.4757969081401825 76 229 76
2.5436649322509766 -4.748530864715576 -0.002501061651855707 153 153 153
4.583188056945801 1.2791050672531128 0.01461448147892952 153 153 153
1.8751628398895264 3.179102897644043 -0.01700424775481224 153 153 153
3.9951629638671875 -1.8940610885620117 0.009934674017131329 153 153 153
0.8831510543823242 3.390172004699707 -0.01958421804010868 153 153 153
3.6196720600128174 -2.6994895935058594 0.022587528452277184 153 153 153
1.0034469366073608 -0.980032205581665 1.1762250661849976 76 76 229
0.8472309708595276 3.08229923248291 -0.004112855065613985 153 153 153
1.6753065586090088 -1.2964513301849365 -0.0015970781678333879 153 153 153
0.8367940187454224 -1.1911498308181763 1.868131160736084 76 76 229
1.6191500425338745 -0.7736603021621704 1.5671719312667847 229 76 76
0.8976231217384338 -0.4423178434371948 1.4854282140731812 76 76 229
-0.15651217103004456 3.173764705657959 0.0050151958130300045 153 153 153
0.9915158152580261 -0.5990210175514221 0.9904881119728088 76 229 76
1.4170063734054565 -1.179729700088501 0.4319939911365509 229 76 76
0.5405564308166504 0.17787081003189087 0.8762248158454895 76 229 76
1.1686060428619385 -1.712182879447937 0.4588552713394165 229 76 76
0.30084675550460815 -0.9380362033843994 1.2946761846542358 229 76 76
2.2509512901306152 1.4129705429077148 0.0025552220176905394 153 153 153
1.4440587759017944 -0.770828366279602 0.986487865447998 229 76 76
