ply
format ascii 1.0
element vertex 684
property float x
property float y
property float z
property uchar red
property uchar green
property uchar blue
end_header
1.1624492406845093 0.90348881483078 1.2508848905563354 76 229 76
0.46741047501564026 1.432840347290039 0.5399350523948669 229 76 76
-1.8940249681472778 -0.7250293493270874 1.351336121559143 76 76 229
0.7944815754890442 -0.09180611371994019 0.015447908081114292 153 153 153
-1.1602774858474731 0.05141368880867958 1.8146241903305054 76 76 229
-0.0925087109208107 2.203829050064087 0.21090175211429596 229 76 76
-0.2395661175251007 2.279998540878296 0.016307931393384933 153 153 153
1.2142255306243896 2.49698805809021 -0.0005436146166175604 153 153 153
0.5024831295013428 0.9917426109313965 1.3856890201568604 76 229 76
-0.9272431135177612 2.1833815574645996 0.4255511462688446 229 76 76
2.718621253967285 1.5760583877563477 -0.014851761050522327 153 153 153
-3.076565742492676 -4.231489181518555 0.020946085453033447 153 153 153
2.615816116333008 3.6500139236450195 -0.006844927091151476 153 153 153
-0.6175342798233032 2.683159828186035 0.019942643120884895 153 153 153
-0.8097586035728455 2.903355836868286 0.007601057179272175 153 153 153
-4.742243766784668 -1.2386873960494995 0.011293034069240093 153 153 153
0.5376338362693787 0.4911904036998749 0.8445854783058167 76 229 76
-1.7998486757278442 -3.9250266551971436 -0.007208662573248148 153 153 153
2.5646440982818604 -0.003368276171386242 -0.005146305076777935 153 153 153
-1.556012749671936 -0.9798789620399475 0.7043786644935608 76 76 229
1.901330828666687 4.973575592041016 -0.01412227563560009 153 153 153
0.7277887463569641 0.05698469281196594 1.0014907121658325 76 229 76
3.620859384536743 -0.11712001264095306 0.00901807565242052 153 153 153
0.588132381439209 0.24166135489940643 1.7714544534683228 76 229 76
0.7350987792015076 0.43629181385040283 1.8938288688659668 76 229 76
-0.013708243146538734 2.220370292663574 0.6316025257110596 229 76 76
-0.9372694492340088 -0.7150445580482483 0.9155423641204834 76 76 229
-2.7371935844421387 -1.0858407020568848 -0.0014085787115618587 153 153 153
-0.9320106506347656 1.4654017686843872 0.18121905624866486 229 76 76
2.4233946800231934 -1.6032968759536743 -0.013085865415632725 153 153 153
-4.429877758026123 3.3416762351989746 0.009256748482584953 153 153 153
0.390872985124588 -2.8101532459259033 0.0022756271064281464 153 153 153
1.158625841140747 0.8202751278877258 1.1172317266464233 76 229 76
1.9798997640609741 -2.872695207595825 0.005678256042301655 153 153 153
-0.9353178143501282 0.9729053378105164 0.001369744655676186 153 153 153
4.70365047454834 3.523559808731079 -0.00416847039014101 153 153 153
4.432899475097656 4.07084321975708 -0.009764298796653748 153 153 153
-4.400238037109375 1.6446644067764282 -0.0007869128603488207 153 153 153
0.21388351917266846 1.5177689790725708 1.2842164039611816 229 76 76
3.5134568214416504 4.983307361602783 0.004966438747942448 153 153 153
-0.9570835828781128 -0.7268105149269104 1.315195918083191 76 76 229
0.47623199224472046 1.3142261505126953 0.3980649411678314 229 76 76
-0.9334697723388672 -0.9064816832542419 0.006298008840531111 153 153 153
2.5770456790924072 -4.718378067016602 0.004184908699244261 153 153 153
-4.425933837890625 -3.84965443611145 -0.013401749543845654 153 153 153
-0.9661032557487488 1.0776631832122803 0.00029834677116014063 153 153 153
-0.5521857738494873 2.219376564025879 0.4049529731273651 229 76 76
-0.00396452471613884 3.3420567512512207 0.01122946385294199 153 153 153
0.46800732612609863 1.332586407661438 0.8042624592781067 229 76 76
-4.912380695343018 -1.720710039138794 -0.005880723707377911 153 153 153
0.4242435097694397 0.39555346965789795 0.9268093109130859 76 229 76
-1.4988605976104736 0.10400261729955673 1.5848220586776733 76 76 229
1.974987506866455 3.865208864212036 -0.0018612152198329568 153 153 153
-1.5912805795669556 -2.981464385986328 -0.0043874275870621204 153 153 153
0.29099124670028687 1.6195249557495117 1.304258942604065 229 76 76
1.2288506031036377 0.3093557059764862 -0.014793521724641323 153 153 153
-1.0261921882629395 -0.04946424812078476 1.993355631828308 76 76 229
3.4385499954223633 -0.08724713325500488 -0.009343791753053665 153 153 153
0.2870289087295532 0.7288980484008789 1.3510452508926392 76 229 76
-0.8965845108032227 1.9092320203781128 0.31879693269729614 229 76 76
-1.8307101726531982 -1.018766164779663 0.016432184725999832 153 153 153
-4.811225891113281 -1.254626750946045 -0.011386875994503498 153 153 153
0.8231310248374939 0.8235772252082825 1.7818683385849 76 229 76
-1.9590777158737183 -0.5854729413986206 0.952350378036499 76 76 229
-2.923278570175171 -2.1223018169403076 0.010623433627188206 153 153 153
0.17027445137500763 2.107121467590332 0.11907300353050232 229 76 76
0.3292393088340759 0.36786213517189026 1.073477029800415 76 229 76
-4.566021919250488 4.500706195831299 -0.013620930723845959 153 153 153
-0.27625834941864014 1.2479020357131958 -0.005608982406556606 153 153 153
2.7375807762145996 4.438755035400391 -0.004805341828614473 153 153 153
-4.310438632965088 4.107940673828125 0.003878909396007657 153 153 153
-1.1146996021270752 -0.878498375415802 1.4368757009506226 76 76 229
4.069343090057373 -2.5560052394866943 -0.019793841987848282 153 153 153
0.8915836215019226 0.42770084738731384 0.8029108047485352 76 229 76
-0.8194853663444519 1.3534715175628662 0.08569614589214325 229 76 76
-0.6427238583564758 1.1956849098205566 -0.002749765757471323 153 153 153
1.9043852090835571 3.9404451847076416 0.008506621234118938 153 153 153
-1.0361814498901367 -0.8118616938591003 1.499065637588501 76 76 229
-3.7120702266693115 2.126628875732422 0.014589335769414902 153 153 153
-1.6642025709152222 -4.876565456390381 -0.0053087202832102776 153 153 153
-1.6852728128433228 -0.9158391356468201 1.4014326333999634 76 76 229
0.8601329326629639 -0.050990842282772064 1.3489254713058472 76 229 76
-1.1654047966003418 -4.006652355194092 -0.004585282411426306 153 153 153
1.700074553489685 2.0051109790802 0.004453389439731836 153 153 153
-4.992391586303711 -4.604916095733643 0.011229447089135647 153 153 153
0.5879445672035217 0.9943627119064331 1.5120233297348022 76 229 76
-1.5013196468353271 -0.9870774149894714 1.6498656272888184 76 76 229
-1.9236772060394287 -0.6852627396583557 1.3446555137634277 76 76 229
0.4647872745990753 2.0691511631011963 0.608765184879303 229 76 76
0.4978451132774353 0.4025440216064453 1.786803960800171 76 229 76
-1.2399269342422485 -0.26515883207321167 -0.007189590949565172 153 153 153
-1.9329010248184204 -0.24660706520080566 1.188105821609497 76 76 229
1.2550557851791382 0.44423383474349976 1.0484256744384766 76 229 76
0.9842110872268677 0.049446843564510345 1.1382732391357422 76 229 76
-0.9296733140945435 -0.6952383518218994 1.6264268159866333 76 76 229
-4.312377452850342 4.29186487197876 -0.00390650937333703 153 153 153
0.7346848845481873 -0.038818519562482834 1.4185889959335327 76 229 76
-2.8486645221710205 2.3671631813049316 -0.0007515870383940637 153 153 153
-0.8925284147262573 -0.5415332913398743 0.6120948195457458 76 76 229
-1.7380120754241943 -0.6949647665023804 -0.016093477606773376 153 153 153
-0.9959874749183655 -0.061006758362054825 1.3213797807693481 76 76 229
-0.37971031665802 1.2116163969039917 0.6128513216972351 229 76 76
1.4305487871170044 -1.6259796619415283 -0.014683084562420845 153 153 153
-1.6900763511657715 0.028181716799736023 0.9232199788093567 76 76 229
2.6812891960144043 -0.6276666522026062 0.001154620200395584 153 153 153
-0.23697803914546967 2.0826821327209473 1.306203007698059 229 76 76
1.259181261062622 3.6514956951141357 -0.004590238444507122 153 153 153
-0.9886442422866821 -0.7688148021697998 0.5946969985961914 76 76 229
-1.9693667888641357 -0.47889503836631775 1.0484517812728882 76 76 229
-1.8054661750793457 -0.04110312834382057 1.914764642715454 76 76 229
-1.9383254051208496 -0.6141614317893982 1.8973435163497925 76 76 229
-1.7899296283721924 3.3897640705108643 0.012805736623704433 153 153 153
-0.9038295149803162 -0.28272736072540283 1.6661262512207031 76 76 229
-3.3618509769439697 3.930635452270508 0.0029370728880167007 153 153 153
-1.5674978494644165 0.09339901059865952 1.4104275703430176 76 76 229
-0.5550601482391357 -0.11206314712762833 -0.004730467684566975 153 153 153
-1.2818111181259155 -2.7499642372131348 -0.00814144592732191 153 153 153
-0.6350798606872559 1.2118053436279297 0.4847676157951355 229 76 76
1.1415519714355469 0.9423182606697083 1.2735191583633423 76 229 76
-0.9683637022972107 -1.351723074913025 -0.0021198908798396587 153 153 153
1.2736761569976807 0.2893364131450653 1.4719314575195312 76 229 76
0.17991086840629578 1.347190260887146 1.3013023138046265 229 76 76
-3.17236590385437 -2.206925868988037 -0.0032100072130560875 153 153 153
-1.0741971731185913 -0.001754007302224636 0.76819908618927 76 76 229
-1.0402708053588867 -0.8297587633132935 0.9540920257568359 76 76 229
1.0493969917297363 0.10499164462089539 1.6309455633163452 76 229 76
1.2136995792388916 -0.18758410215377808 -0.003538260469213128 153 153 153
3.8294029235839844 -0.6437013745307922 -0.01554804015904665 153 153 153
1.2735216617584229 0.7515761852264404 1.2957580089569092 76 229 76
-0.3814297616481781 -0.33496546745300293 0.003294560592621565 153 153 153
0.8982661366462708 0.09444557130336761 0.9937397241592407 76 229 76
-2.4933276176452637 -1.2524871826171875 -0.028684092685580254 153 153 153
0.5607285499572754 0.27281513810157776 0.8979045152664185 76 229 76
0.5525221228599548 0.5304081439971924 0.8539636731147766 76 229 76
0.15267257392406464 1.215336799621582 0.2914693057537079 229 76 76
0.8487982153892517 0.1552771031856537 1.77595055103302 76 229 76
-1.2915971279144287 2.1486265659332275 0.007113241124898195 153 153 153
1.3509470224380493 0.5614030957221985 1.3814805746078491 76 229 76
-0.1530248522758484 -0.6361162066459656 -0.007723509334027767 153 153 153
4.253849983215332 2.8155910968780518 0.009710186161100864 153 153 153
4.87824010848999 -3.8981711864471436 -0.004542335402220488 153 153 153
1.286563754081726 0.42420512437820435 1.107765555381775 76 229 76
-1.0902165174484253 -2.017763137817383 0.01719779334962368 153 153 153
-4.957437992095947 -2.735621452331543 -0.0016624635318294168 153 153 153
0.8754247426986694 0.06738470494747162 1.6678787469863892 76 229 76
-1.8097330331802368 -0.8131372332572937 1.8678946495056152 76 76 229
2.9731500148773193 -3.992896556854248 -0.01675611361861229 153 153 153
-0.9434676766395569 1.3489692211151123 1.0020818710327148 229 76 76
0.1277083158493042 -2.5339531898498535 0.014213670045137405 153 153 153
2.719128131866455 0.9728805422782898 -0.010022588074207306 153 153 153
-0.24075113236904144 2.2093913555145264 0.8963818550109863 229 76 76
-4.08204984664917 -4.577581882476807 0.0004118681827094406 153 153 153
-0.9274252653121948 1.562101125717163 0.4581664800643921 229 76 76
0.0683678686618805 2.2017910480499268 0.10640384256839752 229 76 76
0.9470656514167786 2.297100782394409 -0.0014561034040525556 153 153 153
0.28717225790023804 1.561558485031128 1.3122615814208984 229 76 76
3.7415571212768555 4.959795951843262 -0.0043366774916648865 153 153 153
0.6919023990631104 0.07750449329614639 0.9699817895889282 76 229 76
4.036402225494385 -1.998231053352356 0.0027516111731529236 153 153 153
-1.4605062007904053 0.09007526189088821 1.8834692239761353 76 76 229
0.8308103680610657 -0.048764221370220184 1.3954716920852661 76 229 76
0.5680062174797058 1.0430431365966797 -0.014191068708896637 153 153 153
0.5383872389793396 0.014951239340007305 1.2731462717056274 76 229 76
-0.8851383328437805 -0.253631055355072 1.7569917440414429 76 76 229
-0.28468626737594604 0.5495572686195374 -0.015643060207366943 153 153 153
-0.8867265582084656 -0.30425378680229187 0.9873987436294556 76 76 229
-1.9796746969223022 -0.4102180302143097 0.6707331538200378 76 76 229
-0.9042290449142456 -0.6033680438995361 1.6059538125991821 76 76 229
-0.2810090184211731 -2.0430331230163574 -0.003619929077103734 153 153 153
0.07696811109781265 0.41747161746025085 0.0075653730891644955 153 153 153
-3.999554395675659 -1.7004508972167969 0.015528473071753979 153 153 153
2.2165753841400146 -2.0806798934936523 0.006852859631180763 153 153 153
1.1419678926467896 0.31784138083457947 0.9676472544670105 76 229 76
0.7724848389625549 0.3578633666038513 0.815367579460144 76 229 76
-1.7959893941879272 -0.814604640007019 0.9837859272956848 76 76 229
1.5374425649642944 4.586414813995361 -0.007962403818964958 153 153 153
0.5157366991043091 -2.8152689933776855 -0.01313302293419838 153 153 153
-1.638227939605713 -3.5600109100341797 -0.0039858887903392315 153 153 153
-0.9231755137443542 -1.721724510192871 -0.00028539763297885656 153 153 153
-2.1513075828552246 0.8933749794960022 -0.015491670928895473 153 153 153
-0.3916061222553253 1.4561928510665894 1.3032962083816528 229 76 76
0.38264748454093933 0.8531286120414734 1.4322110414505005 76 229 76
1.3310296535491943 3.4860751628875732 -0.011117035523056984 153 153 153
-1.914594054222107 4.918452739715576 0.012808697298169136 153 153 153
2.0853028297424316 -3.2483816146850586 0.006247039884328842 153 153 153
3.0928237438201904 1.6988602876663208 -0.003735043341293931 153 153 153
-4.233461856842041 -1.0903856754302979 0.00274601555429399 153 153 153
1.2038685083389282 0.4913164973258972 1.6680461168289185 76 229 76
-0.39991113543510437 2.2271780967712402 0.9746290445327759 229 76 76
1.2996015548706055 0.3918887972831726 1.167909860610962 76 229 76
0.2625674903392792 1.6700892448425293 0.1205061674118042 229 76 76
1.45278000831604 -0.724143922328949 -0.005182472988963127 153 153 153
-0.9193772077560425 1.6675111055374146 0.9948939085006714 229 76 76
0.0476757176220417 3.4947569370269775 -0.002079712226986885 153 153 153
1.0953953266143799 0.4485662281513214 0.0010561092058196664 153 153 153
-1.044545292854309 -0.04396984726190567 1.143275499343872 76 76 229
0.9982609152793884 -4.472209453582764 0.021793730556964874 153 153 153
-0.0754879042506218 -1.8277127742767334 -0.0017282471526414156 153 153 153
3.1990127563476562 3.6301143169403076 -0.008755219168961048 153 153 153
1.1021820306777954 0.7606343626976013 0.9706017374992371 76 229 76
0.10688064992427826 2.2314493656158447 0.34936419129371643 229 76 76
-2.363776206970215 -1.4732753038406372 0.00924835354089737 153 153 153
2.994504451751709 -3.2046689987182617 0.005670446902513504 153 153 153
-0.9107787013053894 1.2493529319763184 1.2945444583892822 229 76 76
-1.5193796157836914 -4.086036205291748 -0.011958560906350613 153 153 153
-1.5712573528289795 -0.962928295135498 1.2268568277359009 76 76 229
-0.9439900517463684 1.7933175563812256 1.2243611812591553 229 76 76
-1.4914385080337524 0.11696486175060272 1.7802646160125732 76 76 229
-1.8982329368591309 -0.17220328748226166 1.3367286920547485 76 76 229
-0.882908821105957 -0.5601658821105957 0.9556537866592407 76 76 229
1.0970845222473145 0.3431718945503235 0.9041892290115356 76 229 76
-4.849964618682861 3.8085265159606934 0.014552791602909565 153 153 153
-1.485190510749817 0.10433507710695267 1.4147025346755981 76 76 229
-1.8532404899597168 -0.7942042946815491 1.7192087173461914 76 76 229
3.908120632171631 -1.2588425874710083 -0.0122819310054183 153 153 153
0.6363836526870728 0.6022375822067261 1.8625258207321167 76 229 76
-2.2043490409851074 4.5034050941467285 -0.0017781361239030957 153 153 153
-0.9014649391174316 -0.31966105103492737 1.1792218685150146 76 76 229
-3.8447608947753906 4.982423305511475 -0.016393957659602165 153 153 153
-0.9488811492919922 -0.1381383091211319 1.2772555351257324 76 76 229
2.151358127593994 0.9026467204093933 0.003016012953594327 153 153 153
1.456425428390503 3.374136447906494 0.019057558849453926 153 153 153
-1.6812107563018799 1.6237362623214722 -0.004142432473599911 153 153 153
1.1894917488098145 0.7236608862876892 1.0364186763763428 76 229 76
-0.9010911583900452 -0.25395989418029785 1.5565745830535889 76 76 229
-0.08958987891674042 1.8047294616699219 1.2915815114974976 229 76 76
3.1802971363067627 2.1221907138824463 0.009035304188728333 153 153 153
1.025739312171936 0.7236026525497437 1.7644128799438477 76 229 76
3.443547010421753 -0.4596993327140808 0.00523384427651763 153 153 153
-4.679957866668701 -1.8276245594024658 0.005944353528320789 153 153 153
0.6462623476982117 0.18218332529067993 0.8943878412246704 76 229 76
0.4227168560028076 1.2151457071304321 0.7201625108718872 229 76 76
0.38957399129867554 0.35826611518859863 1.6831549406051636 76 229 76
-1.387281894683838 1.015690803527832 0.0062682051211595535 153 153 153
-1.9659510850906372 -0.3665153682231903 1.9555376768112183 76 76 229
-1.966989278793335 -0.5384697914123535 0.7575010061264038 76 76 229
0.5127495527267456 0.029196318238973618 1.2448347806930542 76 229 76
1.2077665328979492 0.849880039691925 1.4263802766799927 76 229 76
-0.21203632652759552 0.014414791017770767 0.008997155353426933 153 153 153
3.7260141372680664 0.17685475945472717 -0.003043604549020529 153 153 153
-1.972076416015625 -0.3936850428581238 1.0100507736206055 76 76 229
1.1116329431533813 4.496819019317627 -0.013426138088107109 153 153 153
-3.782161235809326 -2.2633676528930664 0.00480254041031003 153 153 153
2.133835554122925 -2.6547605991363525 0.0018420028500258923 153 153 153
0.39090660214424133 0.13723134994506836 1.3583756685256958 76 229 76
3.772639513015747 3.835340976715088 -0.011434705927968025 153 153 153
-1.6247097253799438 -0.9455010294914246 1.091231346130371 76 76 229
-1.263302206993103 -0.9746366143226624 1.5857146978378296 76 76 229
-0.8963912129402161 0.19009269773960114 -0.0032706314232200384 153 153 153
-0.7614022493362427 -0.8113599419593811 -0.000630028429441154 153 153 153
3.1018810272216797 -1.3595561981201172 0.00045285490341484547 153 153 153
-2.5601179599761963 -4.934962272644043 0.01262448076158762 153 153 153
0.6113528609275818 1.6372464895248413 -0.015110917389392853 153 153 153
0.7476112842559814 -2.7936530113220215 0.007340533658862114 153 153 153
-0.12317991256713867 -1.383844256401062 -0.007611454464495182 153 153 153
0.10280448943376541 2.2053191661834717 0.5837502479553223 229 76 76
0.9491764903068542 0.9592015743255615 1.6201698780059814 76 229 76
-1.6368266344070435 -3.3372504711151123 0.0033257664181292057 153 153 153
0.26609697937965393 -1.8823493719100952 0.02226150780916214 153 153 153
-0.20192892849445343 1.6397475004196167 1.3119572401046753 229 76 76
0.288967490196228 1.9576449394226074 1.3101414442062378 229 76 76
1.1627687215805054 0.21468190848827362 1.061065673828125 76 229 76
-0.4570865035057068 1.21757173538208 0.11588875204324722 229 76 76
2.904855489730835 4.722695350646973 0.013426926918327808 153 153 153
-0.9530956149101257 -0.7288498282432556 1.5072240829467773 76 76 229
0.2954384684562683 -2.125196695327759 0.013196263462305069 153 153 153
-1.0569522380828857 -0.03970636427402496 0.7062864303588867 76 76 229
-1.0321354866027832 -0.05038710683584213 1.0549790859222412 76 76 229
-1.9585257768630981 -0.5480944514274597 0.8870987296104431 76 76 229
3.843986749649048 -2.3724498748779297 -0.016076724976301193 153 153 153
0.3558350205421448 0.17162370681762695 1.2143899202346802 76 229 76
2.9797966480255127 -1.6172524690628052 -0.005902610719203949 153 153 153
-0.15792301297187805 1.8949122428894043 1.3001313209533691 229 76 76
2.10959529876709 1.2036001682281494 -0.0035519071388989687 153 153 153
0.4948139488697052 0.17077675461769104 1.0214860439300537 76 229 76
0.5331675410270691 1.2602319717407227 -0.0024423031136393547 153 153 153
-0.9155483841896057 -0.6213845610618591 1.9710841178894043 76 76 229
-3.5575246810913086 -3.3715574741363525 0.02169874496757984 153 153 153
-1.0637669563293457 -4.484469890594482 -0.006290711462497711 153 153 153
0.061861731112003326 -2.3157083988189697 -0.0226930920034647 153 153 153
-0.207554429769516 1.2075247764587402 0.4415527880191803 229 76 76
-0.10510287433862686 2.2244269847869873 0.325540691614151 229 76 76
0.33090972900390625 0.4108646810054779 1.5811649560928345 76 229 76
-2.7197303771972656 -3.6682889461517334 0.0030554067343473434 153 153 153
-0.9533132314682007 1.477856159210205 1.0125174522399902 229 76 76
1.1910934448242188 0.762580156326294 1.6274980306625366 76 229 76
3.8486838340759277 -3.5707247257232666 -0.008325545117259026 153 153 153
1.170351266860962 3.197434425354004 0.015425583347678185 153 153 153
1.159514307975769 -0.035970136523246765 0.01103085745126009 153 153 153
0.3268049657344818 0.24174365401268005 1.463517427444458 76 229 76
1.5036863088607788 1.2359094619750977 0.006433580536395311 153 153 153
4.803817272186279 -0.14094805717468262 0.014849988743662834 153 153 153
-1.4176057577133179 -0.9684749245643616 1.7465568780899048 76 76 229
-1.9288175106048584 -0.20868010818958282 1.456050992012024 76 76 229
-0.9157717227935791 1.45054030418396 0.8059565424919128 229 76 76
0.460012286901474 0.918102502822876 1.225858211517334 76 229 76
1.2656352519989014 0.35387808084487915 1.5056451559066772 76 229 76
0.4459790289402008 1.748968243598938 0.9346396327018738 229 76 76
0.48260989785194397 1.6639127731323242 0.999663770198822 229 76 76
0.9157931208610535 0.05590663105249405 1.6359373331069946 76 229 76
-4.151846885681152 0.73515784740448 0.008758892305195332 153 153 153
-0.9625247120857239 -0.7035462260246277 1.4598901271820068 76 76 229
0.76137375831604 0.43902450799942017 1.8836028575897217 76 229 76
1.9853930473327637 -0.5533743500709534 0.004740402102470398 153 153 153
-2.140375852584839 -1.2606254816055298 -0.01740753836929798 153 153 153
3.047657012939453 -3.703493595123291 0.000885462504811585 153 153 153
0.493171364068985 1.766388177871704 1.0224417448043823 229 76 76
-1.0337706804275513 -0.8236634731292725 1.2903521060943604 76 76 229
-1.3532763719558716 1.0078520774841309 -0.00383965577930212 153 153 153
0.5683792233467102 0.4487457275390625 0.8178344368934631 76 229 76
0.5707783102989197 -0.0025371648371219635 1.296354055404663 76 229 76
4.475224018096924 2.0468711853027344 -0.010727070271968842 153 153 153
-0.7006238102912903 1.2302560806274414 0.1679297685623169 229 76 76
-0.9328104257583618 2.1537556648254395 0.5751144289970398 229 76 76
-0.8913969993591309 2.5658228397369385 0.010226775892078876 153 153 153
-0.20200951397418976 1.2583644390106201 0.11349691450595856 229 76 76
-4.901866912841797 -4.9457831382751465 -0.011313948780298233 153 153 153
0.519320011138916 0.33774465322494507 1.778205394744873 76 229 76
1.9395421743392944 4.210554599761963 -0.008413787931203842 153 153 153
-1.4409500360488892 -4.628162384033203 -0.011021862737834454 153 153 153
-0.11914568394422531 1.2192621231079102 0.5979239344596863 229 76 76
0.8218309879302979 0.84378582239151 1.770065426826477 76 229 76
-0.9606953263282776 -0.7485092282295227 1.590409278869629 76 76 229
3.584679126739502 -1.8502310514450073 -0.019850654527544975 153 153 153
0.7271839380264282 0.8603752255439758 1.7512750625610352 76 229 76
0.8431425094604492 0.0628724917769432 1.6439766883850098 76 229 76
1.2373771667480469 0.20660634338855743 1.473496437072754 76 229 76
0.43354371190071106 2.599621295928955 0.01662725955247879 153 153 153
-0.9404283165931702 -0.6993677616119385 1.6782307624816895 76 76 229
1.77792489528656 -1.8953382968902588 -0.0029237214475870132 153 153 153
-1.1531962156295776 -0.9171308875083923 1.1864408254623413 76 76 229
-1.0608421564102173 1.3943564891815186 0.008505365811288357 153 153 153
4.644106388092041 2.415478467941284 0.020211609080433846 153 153 153
0.4609387218952179 1.7525312900543213 0.12592940032482147 229 76 76
1.6082454919815063 -3.838636636734009 -0.008291958831250668 153 153 153
-1.9208370447158813 -0.6507382988929749 1.9116946458816528 76 76 229
-1.94173264503479 -2.0916659832000732 -0.007035539951175451 153 153 153
0.9596912264823914 0.6173285245895386 1.8531978130340576 76 229 76
1.2336719036102295 0.40017274022102356 1.0242769718170166 76 229 76
-4.8151397705078125 1.8102304935455322 -0.009035108610987663 153 153 153
2.8305563926696777 0.7571353912353516 -0.02740054577589035 153 153 153
-2.2021000385284424 -2.5864098072052 -0.004603151232004166 153 153 153
2.835062265396118 -3.6554548740386963 -0.012968407943844795 153 153 153
-1.19127357006073 -2.954155921936035 0.012562476098537445 153 153 153
1.2148770093917847 0.8317505121231079 1.1874784231185913 76 229 76
-0.277804434299469 2.2078630924224854 1.1498615741729736 229 76 76
0.880118191242218 0.7561907768249512 0.8497039675712585 76 229 76
-1.286412239074707 0.10415034741163254 1.2654449939727783 76 76 229
-2.8202807903289795 -3.9268672466278076 0.008995600044727325 153 153 153
-0.9564307332038879 -0.7024659514427185 1.792128324508667 76 76 229
-1.4684698581695557 0.11364764720201492 1.0173065662384033 76 76 229
-1.1173133850097656 0.022177832201123238 0.983424186706543 76 76 229
3.516352415084839 4.2274980545043945 0.005260435398668051 153 153 153
2.519841194152832 -4.0397210121154785 0.00933072529733181 153 153 153
3.3956291675567627 -3.9282121658325195 0.008721417747437954 153 153 153
0.2183096557855606 -2.1318199634552 0.011241747066378593 153 153 153
-1.0113824605941772 -0.08377352356910706 1.5829037427902222 76 76 229
4.80787467956543 2.4203944206237793 -0.005307862535119057 153 153 153
4.3128862380981445 -3.0848073959350586 0.000254011683864519 153 153 153
-1.783921480178833 -0.8595787882804871 0.6267552375793457 76 76 229
0.8738579154014587 0.34856101870536804 1.8495581150054932 76 229 76
4.813760280609131 0.9490577578544617 -0.0028269635513424873 153 153 153
0.47326940298080444 1.654183268547058 0.15315474569797516 229 76 76
-0.0213845893740654 2.201012134552002 0.37045055627822876 229 76 76
2.789809465408325 -2.2443933486938477 -0.019760752096772194 153 153 153
-1.1951346397399902 -0.9457343816757202 1.2108834981918335 76 76 229
0.3583444058895111 0.3763883411884308 1.6346435546875 76 229 76
0.7106119394302368 0.05220650136470795 1.0292481184005737 76 229 76
2.187040090560913 2.4052538871765137 0.00580543652176857 153 153 153
-0.8989365696907043 -0.579186737537384 1.7250394821166992 76 76 229
0.4376220703125 2.948758125305176 0.0023668513167649508 153 153 153
-3.7658557891845703 1.9198429584503174 0.01425850111991167 153 153 153
-0.10181950777769089 -4.298676013946533 0.011132935993373394 153 153 153
4.328128337860107 3.6487979888916016 -0.01016194373369217 153 153 153
0.901052713394165 0.29249826073646545 1.81892728805542 76 229 76
-3.913275718688965 4.891812801361084 -0.011613388545811176 153 153 153
1.167274832725525 2.6764917373657227 -0.005183135159313679 153 153 153
-1.7350130081176758 -0.886095404624939 0.6340177059173584 76 76 229
3.8090150356292725 -4.712273120880127 -2.8039336029905826e-05 153 153 153
1.3282864093780518 1.5431487560272217 0.007895857095718384 153 153 153
-1.9365907907485962 -3.5635006427764893 0.004820882808417082 153 153 153
-3.4102845191955566 4.263624668121338 0.008773211389780045 153 153 153
-0.03504170849919319 2.193530797958374 0.9131705164909363 229 76 76
3.9967596530914307 -3.2001824378967285 -0.010268940590322018 153 153 153
1.0153071880340576 0.6319727301597595 0.8563724160194397 76 229 76
0.1827424317598343 2.2214150428771973 0.7620123028755188 229 76 76
-2.435861825942993 -3.9871466159820557 -0.007925623096525669 153 153 153
1.0122172832489014 0.4854792654514313 0.8295234441757202 76 229 76
-3.4285833835601807 3.9818460941314697 -0.010978972539305687 153 153 153
-0.9370355010032654 -0.1591976284980774 1.2053531408309937 76 76 229
1.1161226034164429 -2.9795548915863037 -0.0022016733419150114 153 153 153
-1.5415704250335693 -0.9752339124679565 1.6611781120300293 76 76 229
-0.9212933778762817 1.6410415172576904 0.5756925940513611 229 76 76
-0.8669294118881226 0.9330676794052124 -0.008658493869006634 153 153 153
3.807943105697632 3.9451522827148438 -0.007431663107126951 153 153 153
0.46700698137283325 1.7096034288406372 0.6974143981933594 229 76 76
-3.1505091190338135 0.6433049440383911 -0.003306915517896414 153 153 153
-0.6480362415313721 -4.858686923980713 -0.0034681600518524647 153 153 153
1.8250747919082642 0.8820580244064331 -0.004201824776828289 153 153 153
0.31414419412612915 1.8406660556793213 0.0071676564402878284 153 153 153
-3.8596973419189453 3.765206813812256 0.004239921923726797 153 153 153
0.7105159759521484 0.9987275004386902 1.617586374282837 76 229 76
-1.372146725654602 -2.487123966217041 0.006079126615077257 153 153 153
-2.5135884284973145 -4.744356632232666 0.013700896874070168 153 153 153
0.9779806733131409 2.7726664543151855 0.008847275748848915 153 153 153
-0.03621988743543625 1.2213386297225952 1.0057176351547241 229 76 76
-4.34294319152832 0.24052131175994873 -0.012504401616752148 153 153 153
-0.381184846162796 -2.447547435760498 -0.0029016530606895685 153 153 153
0.5623305439949036 0.49846121668815613 0.002825314411893487 153 153 153
0.6048263311386108 0.017385270446538925 1.2611714601516724 76 229 76
0.0934579148888588 2.213536024093628 1.0757921934127808 229 76 76
1.2556777000427246 3.8694727420806885 0.010728064924478531 153 153 153
3.755199670791626 -2.355177879333496 -0.006402130238711834 153 153 153
0.9943089485168457 0.010568507947027683 1.2172420024871826 76 229 76
-0.17822209000587463 0.758847713470459 0.0017750307451933622 153 153 153
-4.013935565948486 2.2256834506988525 0.01160258799791336 153 153 153
2.2825515270233154 -3.0338780879974365 0.006437979638576508 153 153 153
-4.529882431030273 -1.192367672920227 0.010884761810302734 153 153 153
-0.9232407212257385 2.1467020511627197 0.7607359290122986 229 76 76
4.012639045715332 -3.0644683837890625 0.0040005105547606945 153 153 153
3.624342679977417 -4.073451042175293 0.022273153066635132 153 153 153
-3.096738576889038 4.287606239318848 0.0006689783185720444 153 153 153
-3.8284661769866943 -3.2491610050201416 0.0036270380951464176 153 153 153
2.4316420555114746 -3.862255811691284 0.0037501733750104904 153 153 153
-4.639593601226807 -0.6907639503479004 -0.008991754613816738 153 153 153
3.0451464653015137 -3.4681508541107178 0.0010204343125224113 153 153 153
-0.6206253170967102 4.82351541519165 0.010088501498103142 153 153 153
4.488022804260254 -1.9733126163482666 0.004408182576298714 153 153 153
0.9590228796005249 0.3493623435497284 1.858412742614746 76 229 76
1.097900152206421 0.46004119515419006 1.791558861732483 76 229 76
-1.8357363939285278 -0.07673848420381546 1.0733722448349 76 76 229
-4.174508094787598 2.0483434200286865 0.012094044126570225 153 153 153
-1.6543891429901123 0.06106336787343025 1.4043893814086914 76 76 229
4.18911075592041 -4.879232406616211 -0.0026231000665575266 153 153 153
0.8721758127212524 0.0019395030103623867 1.1179519891738892 76 229 76
-4.51901912689209 4.062866687774658 -0.011629247106611729 153 153 153
-1.2567932605743408 0.09576060622930527 1.155657172203064 76 76 229
-0.31185609102249146 1.2234165668487549 0.6182813048362732 229 76 76
0.6813966035842896 0.08838728070259094 1.6764521598815918 76 229 76
0.8349823951721191 0.8646963238716125 0.927973210811615 76 229 76
-1.7824807167053223 -0.03808460757136345 0.8300278782844543 76 76 229
0.6848624348640442 0.6423978805541992 1.8654472827911377 76 229 76
-4.97667121887207 -3.4797780513763428 -0.004929105751216412 153 153 153
-1.8991581201553345 -0.7170677185058594 1.5913681983947754 76 76 229
0.6324800252914429 0.09716591238975525 1.038313388824463 76 229 76
2.4776251316070557 3.7132012844085693 -0.008824481628835201 153 153 153
0.40615054965019226 -3.7847900390625 -0.008692748844623566 153 153 153
-0.8083564639091492 2.2069575786590576 1.0579346418380737 229 76 76
-0.2775559723377228 -1.558198094367981 0.0033220872282981873 153 153 153
0.8196760416030884 -0.0032447120174765587 1.1567643880844116 76 229 76
-4.1293745040893555 3.0117337703704834 -0.003095156280323863 153 153 153
-0.5518290400505066 2.2205281257629395 1.0979136228561401 229 76 76
0.04860309511423111 2.207367181777954 0.9051507711410522 229 76 76
-3.336268901824951 3.6320340633392334 -0.007061558309942484 153 153 153
0.37314867973327637 0.7396169900894165 1.594201922416687 76 229 76
-3.886493444442749 -3.966461658477783 -0.006270389072597027 153 153 153
-1.418745517730713 3.3934404850006104 -0.02354748547077179 153 153 153
-0.8968052268028259 -0.2395007163286209 1.2167363166809082 76 76 229
1.7202775478363037 4.750461101531982 -0.007671921513974667 153 153 153
-0.4910683035850525 2.204007148742676 0.8634639382362366 229 76 76
1.4500855207443237 4.316239833831787 -0.010503892786800861 153 153 153
-1.9684354066848755 -0.5266215205192566 1.874415397644043 76 76 229
0.8296604156494141 0.9260768294334412 1.6987652778625488 76 229 76
-0.02897600270807743 1.209323763847351 0.6108923554420471 229 76 76
-4.448787212371826 1.7887139320373535 0.0142090804874897 153 153 153
-0.6243789792060852 -3.5579464435577393 -0.012075410224497318 153 153 153
0.4973636865615845 -3.2028987407684326 -0.007509448099881411 153 153 153
-1.7519088983535767 -0.8711431622505188 1.2941350936889648 76 76 229
-0.9212439060211182 1.5875369310379028 0.5420941114425659 229 76 76
-2.5764589309692383 -3.1915619373321533 0.002481284085661173 153 153 153
-3.6368794441223145 4.132718086242676 0.0009833336807787418 153 153 153
-4.367686748504639 -0.21941395103931427 -0.01047829631716013 153 153 153
-3.055638313293457 0.9956517815589905 0.0017877250211313367 153 153 153
-0.9301358461380005 1.9216747283935547 1.2969551086425781 229 76 76
-0.9594080448150635 -0.7277882695198059 1.7635115385055542 76 76 229
-0.7894227504730225 1.2276841402053833 0.5983899831771851 229 76 76
-2.4387195110321045 -3.6501643657684326 -0.016054298728704453 153 153 153
-0.9405764937400818 1.4248379468917847 1.1000962257385254 229 76 76
-2.674121618270874 -0.9110438227653503 -0.004765122663229704 153 153 153
-0.9430819153785706 -3.9945640563964844 0.0006445341859944165 153 153 153
-0.920676589012146 1.9998184442520142 1.3038970232009888 229 76 76
-3.6393299102783203 -1.1037311553955078 0.011647181585431099 153 153 153
3.90641450881958 -2.8404204845428467 0.017838390544056892 153 153 153
-0.8133227825164795 1.4388965368270874 1.3007781505584717 229 76 76
-4.848602294921875 -4.175661563873291 0.014488167129456997 153 153 153
-0.0005761883221566677 2.003936767578125 1.3192251920700073 229 76 76
0.39843547344207764 -2.6531543731689453 0.006747039034962654 153 153 153
-0.40561139583587646 -1.892328143119812 -0.006611840799450874 153 153 153
1.3168463706970215 0.4875575602054596 1.495395302772522 76 229 76
0.2042914628982544 1.2008888721466064 0.5214591026306152 229 76 76
-0.9284405708312988 2.0980348587036133 0.28405988216400146 229 76 76
-4.986742973327637 0.6168124675750732 0.01303415559232235 153 153 153
0.2742231488227844 1.4521969556808472 1.3235142230987549 229 76 76
-0.9780389070510864 -0.13311228156089783 1.9561101198196411 76 76 229
1.3018829822540283 0.2810346484184265 1.4024896621704102 76 229 76
-2.8326101303100586 3.815908670425415 -0.014529172331094742 153 153 153
-0.9665927290916443 -0.1077369749546051 1.4048633575439453 76 76 229
-1.39723801612854 -0.9848731160163879 1.6582305431365967 76 76 229
1.160875916481018 0.1289016455411911 1.5488027334213257 76 229 76
-1.7888826131820679 -0.8450559377670288 1.5802745819091797 76 76 229
1.2833244800567627 0.7080142498016357 1.375474214553833 76 229 76
-0.7595009207725525 1.2237591743469238 1.0043164491653442 229 76 76
-0.08040148764848709 1.2252830266952515 0.4331095218658447 229 76 76
-1.2791638374328613 0.07942917943000793 1.0630080699920654 76 76 229
1.0284581184387207 0.2965967655181885 0.8899042010307312 76 229 76
-4.941086292266846 4.734310150146484 -0.0012356167426332831 153 153 153
0.9021628499031067 0.39928698539733887 0.7857974767684937 76 229 76
1.2222954034805298 3.7673532962799072 0.0197545625269413 153 153 153
-3.7696595191955566 -2.8131420612335205 0.005261710379272699 153 153 153
4.775090217590332 2.9108622074127197 0.009704053401947021 153 153 153
-3.810699224472046 2.4746432304382324 -0.0034585504326969385 153 153 153
1.8930909633636475 2.5138251781463623 -0.006068984046578407 153 153 153
3.7652533054351807 -1.8660808801651 -0.0030871096532791853 153 153 153
-4.152521133422852 -2.0073652267456055 0.007539378944784403 153 153 153
-2.3632068634033203 0.9004450440406799 0.018103156238794327 153 153 153
-1.589924693107605 -0.9619842171669006 0.6161242723464966 76 76 229
-0.4813600778579712 4.384247303009033 -0.018169449642300606 153 153 153
-1.8290667533874512 -4.327104091644287 0.0017754577565938234 153 153 153
-1.9360414743423462 -0.6405657529830933 1.9103871583938599 76 76 229
-0.2130368947982788 2.103243112564087 -0.022197026759386063 153 153 153
-0.8796476125717163 -0.40590959787368774 0.8382124304771423 76 76 229
-3.302858829498291 -2.9881176948547363 -0.013134007342159748 153 153 153
-3.7109081745147705 -3.5039682388305664 0.0192186888307333 153 153 153
-1.3817254304885864 0.1448756754398346 -0.01010986603796482 153 153 153
-1.6369894742965698 -0.9192020893096924 1.1293364763259888 76 76 229
1.2561348676681519 0.6361839771270752 1.093824028968811 76 229 76
1.0300068855285645 0.8010819554328918 1.746545672416687 76 229 76
-0.10668766498565674 -2.283754825592041 0.004307836759835482 153 153 153
0.7437326312065125 0.21129679679870605 1.8152261972427368 76 229 76
-1.2169647216796875 2.5201029777526855 -0.011404593475162983 153 153 153
-0.10762065649032593 1.2956382036209106 0.13172408938407898 229 76 76
-1.2522265911102295 0.3984600901603699 0.013556865975260735 153 153 153
0.7355099320411682 0.7776986956596375 1.8070563077926636 76 229 76
-4.679292678833008 -4.6605377197265625 -0.004649817477911711 153 153 153
-2.503659248352051 -4.030896186828613 -0.0061355275101959705 153 153 153
0.4521554112434387 1.2395976781845093 0.8528377413749695 229 76 76
0.6717863082885742 0.9057381749153137 0.9706100821495056 76 229 76
4.5374250411987305 3.8782052993774414 0.004912272561341524 153 153 153
-3.7177116870880127 1.8114039897918701 -0.011144381016492844 153 153 153
-1.8321760892868042 -0.7988678216934204 1.7865997552871704 76 76 229
-3.6666219234466553 -1.7249600887298584 -0.00023656313715036958 153 153 153
-4.7795233726501465 3.0989222526550293 0.001240378711372614 153 153 153
3.8574395179748535 2.3803889751434326 0.00450919708237052 153 153 153
3.801988363265991 1.6701302528381348 0.0036721457727253437 153 153 153
-0.9136700630187988 -0.636597216129303 1.7166305780410767 76 76 229
4.83242130279541 -1.943467617034912 0.013187716715037823 153 153 153
-0.9413352608680725 -0.6998246312141418 1.959712028503418 76 76 229
-1.5006717443466187 0.09958752244710922 1.5347477197647095 76 76 229
-1.874166488647461 -0.15973715484142303 1.8415663242340088 76 76 229
3.7876851558685303 -0.6187125444412231 -0.007022388279438019 153 153 153
-0.9369159936904907 -0.15959212183952332 1.3282904624938965 76 76 229
-0.07947299629449844 1.6902292966842651 0.12143724411725998 229 76 76
1.0063815116882324 0.8748383522033691 0.9674153923988342 76 229 76
-2.3804683685302734 -3.0202672481536865 -0.0037387460470199585 153 153 153
0.6881465315818787 -3.454676866531372 0.01086489949375391 153 153 153
0.6046122312545776 0.9115901589393616 1.663516879081726 76 229 76
0.36668357253074646 2.217400550842285 0.21986372768878937 229 76 76
0.6744113564491272 0.04497324675321579 1.042214274406433 76 229 76
-1.8253414630889893 -0.8188691735267639 0.005779765546321869 153 153 153
0.48495396971702576 1.430112361907959 0.2926477789878845 229 76 76
1.2466449737548828 0.7397394776344299 1.10470712184906 76 229 76
-3.1960747241973877 -3.27848219871521 0.00018395177903585136 153 153 153
1.0126111507415771 1.7405173778533936 0.012056659907102585 153 153 153
-0.7595060467720032 1.9731210470199585 0.11139798164367676 229 76 76
-2.2010183334350586 2.8687357902526855 -0.004821557551622391 153 153 153
0.8112671375274658 2.32540225982666 -0.0006675075856037438 153 153 153
-1.5366750955581665 0.11283329129219055 0.9976043105125427 76 76 229
-1.125213623046875 -0.879000186920166 0.9791584610939026 76 76 229
-3.687633514404297 0.7178158164024353 0.012743823230266571 153 153 153
-1.9518344402313232 -0.39896491169929504 2.0371346473693848 76 76 229
0.3722454905509949 0.6427426338195801 0.9908614754676819 76 229 76
-1.2112118005752563 -4.828636169433594 0.021869925782084465 153 153 153
4.597138404846191 -4.858749866485596 0.01306184846907854 153 153 153
0.7121536135673523 0.7114545106887817 0.8169824481010437 76 229 76
-1.9576420783996582 -0.26572519540786743 1.4635021686553955 76 76 229
-3.398465633392334 -3.1877870559692383 -0.013775289058685303 153 153 153
-4.887875556945801 1.2115905284881592 0.007254348136484623 153 153 153
-1.9617154598236084 -0.5407574772834778 1.3313326835632324 76 76 229
-1.3268789052963257 4.591277122497559 -0.01849924586713314 153 153 153
1.127153992652893 4.624027252197266 0.013095070607960224 153 153 153
-0.12114030867815018 2.2114791870117188 0.33748120069503784 229 76 76
0.8682255744934082 -0.9205605983734131 -0.021826473996043205 153 153 153
1.1563892364501953 0.30761492252349854 0.9374270439147949 76 229 76
-2.409965991973877 -2.218224287033081 -0.011846807785332203 153 153 153
-2.578193187713623 -3.1981325149536133 -0.007817708887159824 153 153 153
-1.6802983283996582 -0.8978837728500366 2.0192692279815674 76 76 229
-3.076174736022949 2.9623351097106934 0.022171618416905403 153 153 153
-0.9109436273574829 -0.24644191563129425 0.5913591384887695 76 76 229
-0.9177244901657104 1.538480520248413 0.5149927735328674 229 76 76
-0.43727171421051025 2.220921277999878 0.3782573342323303 229 76 76
4.25180196762085 -0.09873062372207642 -0.005089383106678724 153 153 153
3.651611089706421 0.1663150191307068 -0.0085484953597188 153 153 153
1.0589861869812012 0.9858919382095337 1.1789175271987915 76 229 76
3.4974780082702637 4.047656059265137 -0.008894992992281914 153 153 153
0.47169527411460876 0.2379259169101715 0.9738615155220032 76 229 76
-0.9407685995101929 2.1739747524261475 0.33673331141471863 229 76 76
-0.07892085611820221 1.2813689708709717 1.3235771656036377 229 76 76
-1.5101549625396729 0.10974245518445969 1.2853082418441772 76 76 229
-4.55088996887207 -0.32163122296333313 -0.012118280865252018 153 153 153
0.453357458114624 0.07878483831882477 1.2834410667419434 76 229 76
-1.4913603067398071 0.09523594379425049 1.5184710025787354 76 76 229
3.293996572494507 -4.418241500854492 0.00503885792568326 153 153 153
0.38467350602149963 -1.4934748411178589 -0.00332884443923831 153 153 153
0.4455948770046234 2.0269901752471924 0.982552707195282 229 76 76
3.7112605571746826 1.6233755350112915 -0.003608701517805457 153 153 153
1.0104737281799316 0.07152197510004044 1.074843406677246 76 229 76
0.38836970925331116 2.689154863357544 -0.010282437317073345 153 153 153
4.813549995422363 0.31344565749168396 -0.017032572999596596 153 153 153
-0.7552793622016907 -3.708197832107544 0.022300226613879204 153 153 153
-1.5153053998947144 0.10552505403757095 1.3401826620101929 76 76 229
0.35848867893218994 0.6873178482055664 -0.009934795089066029 153 153 153
1.2744005918502808 0.746124804019928 1.25727379322052 76 229 76
-2.5977284908294678 -0.18750916421413422 0.002589965471997857 153 153 153
2.192145347595215 -2.4683985710144043 -0.01531079038977623 153 153 153
1.2394951581954956 0.75728839635849 1.5767542123794556 76 229 76
-4.493398189544678 4.539062023162842 -0.01426604762673378 153 153 153
0.2523820698261261 0.6207178831100464 1.4025182723999023 76 229 76
1.7736626863479614 -2.6630537509918213 -0.012113122269511223 153 153 153
-0.35024744272232056 1.8197078704833984 0.008627664297819138 153 153 153
-4.706387519836426 -4.7843241691589355 -0.004318466410040855 153 153 153
-0.15488417446613312 1.2198708057403564 0.15299057960510254 229 76 76
0.7489857077598572 0.7704327702522278 1.8250255584716797 76 229 76
-0.6032480597496033 0.46927401423454285 -0.004417480435222387 153 153 153
3.4436452388763428 4.550676345825195 -0.0008442403050139546 153 153 153
-0.8847517967224121 -0.2513507008552551 0.6795271039009094 76 76 229
-1.442557454109192 -0.9783390164375305 1.1127269268035889 76 76 229
1.1499193906784058 0.24543699622154236 1.6541756391525269 76 229 76
0.4599453806877136 1.5747956037521362 0.5117657780647278 229 76 76
0.5459685325622559 0.5980197191238403 0.8537712097167969 76 229 76
0.09786710888147354 3.1288044452667236 0.003184356726706028 153 153 153
3.3119406700134277 3.985360622406006 -0.014281651936471462 153 153 153
-0.9272521734237671 1.675528645515442 0.7629978656768799 229 76 76
-0.8058498501777649 1.2163608074188232 0.4750303328037262 229 76 76
0.0509071908891201 1.7453408241271973 0.11089849472045898 229 76 76
-0.01881587877869606 2.2093827724456787 0.5135229229927063 229 76 76
0.508269190788269 0.3416331112384796 0.8713666796684265 76 229 76
0.5063709020614624 0.14624954760074615 1.6219911575317383 76 229 76
-1.9864842891693115 2.479091167449951 -0.012397943995893002 153 153 153
-0.7186679840087891 2.233961343765259 0.7593104243278503 229 76 76
-1.543212890625 1.4487576484680176 -0.006393863819539547 153 153 153
-2.6228554248809814 0.46583449840545654 0.006702431011945009 153 153 153
-1.0473469495773315 -0.05447141081094742 1.8189104795455933 76 76 229
-2.6323916912078857 1.7190829515457153 0.005855899769812822 153 153 153
-4.059309005737305 2.3469231128692627 0.013445129618048668 153 153 153
0.21169622242450714 2.206820249557495 0.7299506664276123 229 76 76
1.108202338218689 0.3982609212398529 0.8836824893951416 76 229 76
1.0297836065292358 0.07666543126106262 1.0862364768981934 76 229 76
0.46223363280296326 0.851754367351532 1.0370370149612427 76 229 76
0.3560822904109955 0.8673231601715088 1.327360987663269 76 229 76
3.8773083686828613 2.621039867401123 0.010895783081650734 153 153 153
4.649517059326172 3.0400230884552 -0.004036311060190201 153 153 153
-3.67096209526062 3.530097723007202 -0.008221088908612728 153 153 153
0.960056722164154 0.6025853157043457 0.8017138838768005 76 229 76
-1.841932773590088 -0.7878689169883728 1.9393244981765747 76 76 229
-4.666751861572266 1.6993944644927979 0.012173404917120934 153 153 153
-4.952749729156494 3.270700454711914 0.007176908198744059 153 153 153
0.04796682670712471 1.2241628170013428 0.7348446249961853 229 76 76
0.952612578868866 0.7310881018638611 0.8439894318580627 76 229 76
-2.852483034133911 4.806065559387207 0.0035941507667303085 153 153 153
-1.5276118516921997 -0.9669241905212402 1.461350679397583 76 76 229
4.320153713226318 -1.3909502029418945 -0.00233781267888844 153 153 153
0.2811919152736664 0.6648300290107727 1.373738169670105 76 229 76
-1.7247076034545898 -0.8989824652671814 0.649902880191803 76 76 229
-3.7285823822021484 -3.7986814975738525 -0.009751766920089722 153 153 153
2.228769063949585 2.501969814300537 0.0015310513554140925 153 153 153
-3.997171401977539 -0.689335823059082 -0.01038996409624815 153 153 153
1.0524096488952637 4.362852573394775 0.009477417916059494 153 153 153
1.2502291202545166 0.8257862329483032 1.3619766235351562 76 229 76
0.45124560594558716 0.08218857645988464 1.2863279581069946 76 229 76
3.339695930480957 -3.7242093086242676 -0.001210397807881236 153 153 153
-4.115828037261963 -4.447160720825195 0.007971113547682762 153 153 153
-1.7681126594543457 0.6191368699073792 0.009446856565773487 153 153 153
0.8250921368598938 0.28760698437690735 1.8287193775177002 76 229 76
-2.5400750637054443 -2.6695942878723145 -0.015297613106667995 153 153 153
-0.9294407963752747 2.104583978652954 1.0580459833145142 229 76 76
-0.2634807825088501 1.732743501663208 0.0012548534432426095 153 153 153
-1.9794657230377197 -0.5645982027053833 1.4574782848358154 76 76 229
-0.8875815272331238 1.2128405570983887 0.7156469821929932 229 76 76
2.635335683822632 -1.8015602827072144 -0.005012860056012869 153 153 153
3.807698965072632 -0.5511137843132019 -0.006216804962605238 153 153 153
-0.6927585005760193 2.222280263900757 1.0578033924102783 229 76 76
-1.943696141242981 -0.554940938949585 1.3740122318267822 76 76 229
-2.8022992610931396 -2.29756498336792 -0.0023703856859356165 153 153 153
-0.9249900579452515 2.0627684593200684 1.1697615385055542 229 76 76
