ply
format ascii 1.0
element vertex 686
property float x
property float y
property float z
property uchar red
property uchar green
property uchar blue
end_header
2.2748117446899414 -1.7128323316574097 0.010681264102458954 153 153 153
-2.6667144298553467 3.5365097522735596 0.0018943996401503682 153 153 153
2.259855270385742 0.7613379955291748 1.7137248516082764 76 76 229
0.31213197112083435 2.9890456199645996 -0.0026900318916887045 153 153 153
-1.1573530435562134 0.6464855670928955 0.843966007232666 76 229 76
2.5264761447906494 1.3660507202148438 0.8900298476219177 76 76 229
1.8661463260650635 -1.6759456396102905 -0.0030165209900587797 153 153 153
-1.1055294275283813 0.9370898008346558 0.6921798586845398 76 229 76
-1.287185549736023 -1.4634487628936768 0.47240525484085083 229 76 76
-2.0119011402130127 -2.1608991622924805 1.5320223569869995 229 76 76
-0.6271232962608337 -1.6010373830795288 1.1675386428833008 229 76 76
-1.9658359289169312 -1.5929096937179565 1.6526621580123901 229 76 76
1.8243287801742554 0.6005640625953674 1.877729892730713 76 76 229
-2.130736827850342 -4.974893093109131 -0.005131099373102188 153 153 153
-4.234464168548584 2.944631338119507 -0.013205314986407757 153 153 153
-4.960526466369629 0.6303209066390991 -0.012336337007582188 153 153 153
2.2431271076202393 0.7149985432624817 1.9613304138183594 76 76 229
-3.1886937618255615 4.710923194885254 -0.012593565508723259 153 153 153
-2.0272414684295654 -1.785123348236084 0.6697379946708679 229 76 76
-2.94027042388916 -2.366553783416748 0.007988423109054565 153 153 153
-0.9221065640449524 3.6821396350860596 -0.0022741223219782114 153 153 153
-0.8547462224960327 0.7817814946174622 -0.01585947908461094 153 153 153
-3.9800524711608887 1.347612738609314 -0.008500460535287857 153 153 153
1.241562008857727 0.9257338643074036 1.412736177444458 76 76 229
-0.21207843720912933 3.8897035121917725 0.018954699859023094 153 153 153
-0.7988559603691101 -3.4255754947662354 -0.011656499467790127 153 153 153
-0.19347624480724335 -0.0013785692863166332 1.1035478115081787 76 229 76
-3.889772653579712 -0.20519277453422546 -0.004202347714453936 153 153 153
-1.0229436159133911 -3.225762128829956 -0.01482382882386446 153 153 153
-0.7275366187095642 -2.2233448028564453 0.46427464485168457 229 76 76
1.402126669883728 -4.627627849578857 -0.009518555365502834 153 153 153
-0.6060553193092346 1.05211341381073 1.5798754692077637 76 229 76
3.461041212081909 0.9695891737937927 -0.013261907733976841 153 153 153
-1.091329574584961 -0.03486352413892746 -0.004906730726361275 153 153 153
-4.3850531578063965 -0.9627797603607178 0.01231853011995554 153 153 153
-0.31209853291511536 -4.860793590545654 0.0008955742814578116 153 153 153
4.851300239562988 4.950386047363281 0.005580706987529993 153 153 153
-1.8208006620407104 -1.3283138275146484 1.5172436237335205 229 76 76
-0.6706019639968872 0.11947760730981827 1.2624632120132446 76 229 76
0.41301649808883667 0.5886300206184387 0.9461967945098877 76 229 76
-0.6116861701011658 0.8678973317146301 1.6130532026290894 76 229 76
0.1521119326353073 -3.951054334640503 0.013229810632765293 153 153 153
-4.637035846710205 -1.1349960565567017 -0.004689469002187252 153 153 153
-0.06529076397418976 1.4700711965560913 0.824253261089325 76 229 76
3.8849754333496094 -3.2158937454223633 -0.006624665576964617 153 153 153
1.7070562839508057 1.9796725511550903 1.8292773962020874 76 76 229
1.1506270170211792 1.4275908470153809 0.5397320985794067 76 76 229
-0.3169308304786682 1.1031452417373657 0.17929789423942566 76 229 76
0.6989350914955139 -4.323357582092285 0.00026078472728841007 153 153 153
-0.931817889213562 1.2988594770431519 0.9307520389556885 76 229 76
0.4954853653907776 0.8985059857368469 0.01893291063606739 153 153 153
1.2152141332626343 1.6183090209960938 1.3370740413665771 76 76 229
-1.9243979454040527 4.254089832305908 0.0018430943600833416 153 153 153
1.1568368673324585 1.4793154001235962 0.19351078569889069 76 76 229
-1.15175461769104 0.692196786403656 0.8667030334472656 76 229 76
-0.7847263813018799 -1.8703330755233765 1.6653988361358643 229 76 76
1.4742192029953003 1.7148841619491577 0.013195766136050224 153 153 153
2.218607187271118 1.873950719833374 1.0173606872558594 76 76 229
-0.39886176586151123 1.3029770851135254 1.449236512184143 76 229 76
-4.018908977508545 -3.3696818351745605 -0.0008182324818335474 153 153 153
-0.8672434687614441 1.268011212348938 1.2302364110946655 76 229 76
-0.6084499955177307 1.4238684177398682 1.1813143491744995 76 229 76
-2.6829111576080322 1.4304343461990356 -0.019633714109659195 153 153 153
-2.0143518447875977 -1.3049145936965942 0.001985076814889908 153 153 153
-1.211287498474121 -1.4028279781341553 0.46470338106155396 229 76 76
2.040269136428833 1.9616156816482544 1.1768077611923218 76 76 229
-0.672335147857666 4.9783711433410645 -0.010184920392930508 153 153 153
-0.5111283659934998 0.21748903393745422 -0.013971461914479733 153 153 153
-3.0146963596343994 2.412961483001709 0.0005532654467970133 153 153 153
2.3245596885681152 0.8217681646347046 1.3267228603363037 76 76 229
-0.4037341773509979 0.3598030209541321 0.008829434402287006 153 153 153
-0.6200904846191406 -1.5486654043197632 1.6488220691680908 229 76 76
-3.684661388397217 2.610193967819214 0.0073271761648356915 153 153 153
-1.3907302618026733 -3.5515899658203125 0.005936816334724426 153 153 153
2.516956329345703 1.1694815158843994 0.3274361789226532 76 76 229
-0.2570655941963196 1.0723122358322144 0.17516976594924927 76 229 76
-0.6210538148880005 -2.0595929622650146 1.0708283185958862 229 76 76
-0.734869122505188 0.9547656178474426 0.18728816509246826 76 229 76
-0.3320920765399933 0.7153735756874084 -0.0013335990952327847 153 153 153
4.00254487991333 -0.615357518196106 0.0039448426105082035 153 153 153
1.6770457029342651 0.609591543674469 2.0241663455963135 76 76 229
2.063856363296509 4.638734817504883 0.0031465385109186172 153 153 153
1.6764308214187622 1.9567288160324097 1.436754584312439 76 76 229
-1.0957845449447632 0.6005222201347351 0.640666663646698 76 229 76
1.961726188659668 1.9779735803604126 0.69664067029953 76 76 229
1.2510236501693726 0.18470999598503113 0.0005582607700489461 153 153 153
-1.7542260885238647 -2.77229380607605 0.0026618833653628826 153 153 153
-0.6467962265014648 -1.6160852909088135 1.1011252403259277 229 76 76
4.706798553466797 -3.9141600131988525 -0.01509595662355423 153 153 153
1.9922876358032227 0.455183207988739 0.0020936394575983286 153 153 153
1.9861440658569336 0.6077882051467896 1.728049635887146 76 76 229
-1.9672521352767944 -1.3493086099624634 1.3041936159133911 229 76 76
-4.498928546905518 0.8833879232406616 0.004231715574860573 153 153 153
-0.5120379328727722 1.1815434694290161 1.5368859767913818 76 229 76
-3.442471742630005 -0.8215126991271973 0.012288850732147694 153 153 153
-3.8526716232299805 4.1011962890625 -0.006620234809815884 153 153 153
4.090917110443115 3.2935574054718018 0.004543510265648365 153 153 153
4.248746871948242 -2.6202235221862793 0.009837900288403034 153 153 153
1.551235318183899 0.6526327729225159 0.5625371932983398 76 76 229
2.225241184234619 1.8663454055786133 0.6206603050231934 76 76 229
2.071420907974243 0.6512328386306763 2.096327066421509 76 76 229
-1.9823269844055176 -2.3496413230895996 1.1297889947891235 229 76 76
-1.9318616390228271 -1.938949465751648 1.6704992055892944 229 76 76
-0.4030262529850006 0.18062308430671692 0.34911584854125977 76 229 76
0.3377305865287781 0.7538226246833801 1.2302906513214111 76 229 76
-0.9150493144989014 1.0157665014266968 1.3736450672149658 76 229 76
-0.9480236768722534 -1.7824583053588867 0.4546859860420227 229 76 76
4.961069107055664 -4.6956377029418945 0.004239070229232311 153 153 153
-1.0723029375076294 0.9174891710281372 1.2086597681045532 76 229 76
0.6181012988090515 0.17848438024520874 0.0003776668745558709 153 153 153
-2.929654598236084 4.008620262145996 0.012891167774796486 153 153 153
-0.7500449419021606 -1.6323070526123047 0.4540724754333496 229 76 76
2.010477066040039 2.0709657669067383 0.011642759665846825 153 153 153
4.2617573738098145 -3.7971959114074707 0.004501349292695522 153 153 153
2.711125135421753 3.7957592010498047 0.007618820294737816 153 153 153
1.6096599102020264 2.724975824356079 0.003887758357450366 153 153 153
2.489960193634033 1.4327884912490845 0.6970606446266174 76 76 229
0.3851216435432434 1.007273554801941 0.8601341247558594 76 229 76
-0.8968483209609985 0.856365442276001 1.4544506072998047 76 229 76
0.10836842656135559 -3.7347960472106934 -0.01910395175218582 153 153 153
-0.7956863641738892 -2.307894229888916 0.46553054451942444 229 76 76
-0.3458048403263092 -2.049293041229248 -0.0011398724745959044 153 153 153
1.140046238899231 1.3906134366989136 0.9451860189437866 76 76 229
-1.93027925491333 1.4085290431976318 0.0002405965351499617 153 153 153
-3.573702573776245 3.7371840476989746 -0.000987843843176961 153 153 153
-1.9512277841567993 -4.279118537902832 0.0031707342714071274 153 153 153
-1.1303521394729614 0.7277804017066956 0.702819287776947 76 229 76
-1.8750224113464355 -1.7567132711410522 0.47564497590065 229 76 76
-4.878833770751953 -1.6446360349655151 -0.02171247825026512 153 153 153
2.297860622406006 2.84336519241333 -0.0015383436111733317 153 153 153
-0.9289257526397705 2.343574047088623 0.001967133954167366 153 153 153
2.348980188369751 -3.794851541519165 0.012624052353203297 153 153 153
-0.4991883635520935 1.7527273893356323 0.006291160825639963 153 153 153
1.4657315015792847 0.703450083732605 0.241124227643013 76 76 229
2.0569465160369873 1.9444550275802612 1.054236888885498 76 76 229
2.7329647541046143 -2.208178997039795 0.008140035904943943 153 153 153
1.303004264831543 1.7651900053024292 0.8216762542724609 76 76 229
-1.8890107870101929 -2.0138399600982666 1.681980848312378 229 76 76
-3.1723082065582275 -3.565216541290283 0.00793815404176712 153 153 153
-3.1271591186523438 1.2169146537780762 -0.01871337927877903 153 153 153
1.2332731485366821 -3.740072727203369 -0.013790621422231197 153 153 153
-1.3302243947982788 1.3002511262893677 0.01511230319738388 153 153 153
4.591227054595947 -1.2086613178253174 0.006334743928164244 153 153 153
-1.0795278549194336 0.5093768239021301 0.6024832725524902 76 229 76
0.3777313828468323 2.974639415740967 0.014620579779148102 153 153 153
1.4932266473770142 1.212855577468872 -0.004336371086537838 153 153 153
-4.952158451080322 4.736014366149902 0.008293244987726212 153 153 153
3.8774638175964355 3.158555746078491 0.00028678218950517476 153 153 153
4.072350025177002 3.52112078666687 0.009180065244436264 153 153 153
2.3888447284698486 0.8749164342880249 1.0795129537582397 76 76 229
0.8307616710662842 0.13538609445095062 -0.009834060445427895 153 153 153
1.7832984924316406 1.9704811573028564 0.3583568036556244 76 76 229
1.672705888748169 -1.1010428667068481 -0.0003340771945659071 153 153 153
-0.9619584679603577 -1.3337266445159912 1.268056869506836 229 76 76
-1.9421873092651367 -2.734734058380127 0.010134819895029068 153 153 153
-1.6986339092254639 -2.177665948867798 1.6666712760925293 229 76 76
1.4393689632415771 -1.8970452547073364 0.006928776390850544 153 153 153
-0.011386232450604439 1.2929857969284058 0.4098651707172394 76 229 76
2.4850568771362305 1.113587737083435 0.9304074645042419 76 76 229
-2.018930196762085 -1.3941031694412231 1.3641431331634521 229 76 76
4.928854465484619 -4.873129367828369 -0.005392193328589201 153 153 153
-0.5979804396629333 0.5497574806213379 0.12501582503318787 76 229 76
-3.5036461353302 4.7574992179870605 -0.014202434569597244 153 153 153
-0.1421804577112198 0.9045954346656799 1.6005507707595825 76 229 76
-2.2502541542053223 2.435072183609009 0.0016926157986745238 153 153 153
0.13265736401081085 1.106917142868042 1.352123737335205 76 229 76
2.86822247505188 0.8930462598800659 -0.025956004858016968 153 153 153
-2.0113539695739746 -1.8971716165542603 1.3990525007247925 229 76 76
-0.14218737185001373 -1.449966549873352 -0.009794041514396667 153 153 153
-1.8106540441513062 -2.329646110534668 0.7764148712158203 229 76 76
-4.815764427185059 -2.4656155109405518 0.003490790957584977 153 153 153
1.4453632831573486 1.8581362962722778 0.22027017176151276 76 76 229
-2.0185844898223877 -2.0596776008605957 1.203157901763916 229 76 76
-0.5617892742156982 1.4259049892425537 0.5292804837226868 76 229 76
-0.2006000131368637 1.3141614198684692 1.4045792818069458 76 229 76
2.8741095066070557 4.04911994934082 0.014906169846653938 153 153 153
1.3021845817565918 0.8284057378768921 0.906546413898468 76 76 229
-0.24198652803897858 0.7457854747772217 1.6784512996673584 76 229 76
1.7820943593978882 1.3530739545822144 0.003732608165591955 153 153 153
1.6608173847198486 0.6088734865188599 0.23212915658950806 76 76 229
0.2710193693637848 0.777213990688324 1.352699637413025 76 229 76
1.1405949592590332 1.3357964754104614 0.5102061033248901 76 76 229
-3.0239064693450928 -2.0230777263641357 -0.0009760746615938842 153 153 153
2.4652159214019775 1.561038613319397 1.5146269798278809 76 76 229
-1.3819774389266968 -1.4016096591949463 0.46196886897087097 229 76 76
0.07812902331352234 0.8920658230781555 0.2487391084432602 76 229 76
0.14873100817203522 3.641599178314209 0.01841919496655464 153 153 153
-0.13531790673732758 -0.8477186560630798 0.008302300237119198 153 153 153
-1.9905766248703003 -1.7260721921920776 1.375227451324463 229 76 76
-0.9408467411994934 0.6421487331390381 1.4287147521972656 76 229 76
4.537238597869873 -0.15274809300899506 0.02325250953435898 153 153 153
2.412867307662964 -2.943850517272949 -0.0055340249091386795 153 153 153
-1.2951815128326416 -1.668701410293579 1.667443037033081 229 76 76
-0.3984585404396057 0.6076949238777161 0.10891174525022507 76 229 76
3.1584439277648926 -3.6589791774749756 0.0010245302692055702 153 153 153
-2.315427303314209 -4.153782367706299 -0.012822986580431461 153 153 153
-1.0135815143585205 -1.3450195789337158 0.01458123978227377 153 153 153
3.173752546310425 -1.8412147760391235 3.632148218457587e-05 153 153 153
3.774494171142578 0.586312472820282 -0.005142170004546642 153 153 153
-0.23511871695518494 4.627751350402832 -0.0027572964318096638 153 153 153
-3.466658353805542 1.9798543453216553 0.006450267508625984 153 153 153
-0.236688494682312 1.0207579135894775 1.6092668771743774 76 229 76
4.351134300231934 3.6333940029144287 -0.007000543177127838 153 153 153
-0.33976221084594727 -4.824193477630615 0.013704377226531506 153 153 153
1.2036017179489136 0.9960007667541504 1.76682710647583 76 76 229
-1.848482608795166 -1.33737313747406 1.5120402574539185 229 76 76
-0.6124590635299683 -1.7910717725753784 1.3304556608200073 229 76 76
3.6066739559173584 2.8147456645965576 -0.0029403804801404476 153 153 153
0.23547440767288208 0.2179311066865921 0.8792664408683777 76 229 76
2.358048915863037 0.8499805331230164 0.6949620246887207 76 76 229
4.5720648765563965 4.101713180541992 -0.006447187624871731 153 153 153
3.125896692276001 -0.09344075620174408 -0.004449618514627218 153 153 153
-4.039421558380127 2.0646841526031494 -0.0012787493178620934 153 153 153
2.434674024581909 0.9368164539337158 2.011756420135498 76 76 229
2.2413649559020996 1.8277870416641235 1.2038424015045166 76 76 229
-2.5845530033111572 -1.095455527305603 -0.00242394907400012 153 153 153
-0.4196479618549347 0.057565197348594666 0.48323366045951843 76 229 76
4.6136016845703125 -1.06342351436615 -0.0026042975950986147 153 153 153
-0.9321972131729126 1.2776341438293457 0.8489659428596497 76 229 76
-1.7570977210998535 -2.340632915496826 1.6335930824279785 229 76 76
-0.9832049012184143 -2.1429357528686523 0.004442940466105938 153 153 153
-2.3828165531158447 2.5242319107055664 0.006301908288151026 153 153 153
3.357365131378174 -3.1382579803466797 -0.0018996314611285925 153 153 153
3.0679397583007812 2.772091865539551 -0.00768611766397953 153 153 153
-1.0699714422225952 -1.3283250331878662 1.1168878078460693 229 76 76
2.9505398273468018 2.901848554611206 -0.006244820076972246 153 153 153
-0.7134882807731628 -4.9900407791137695 0.001055736793205142 153 153 153
-4.027652740478516 -0.03504304587841034 0.011704051867127419 153 153 153
-1.8367046117782593 -1.4421402215957642 0.47685861587524414 229 76 76
0.07596750557422638 0.936846137046814 0.24795088171958923 76 229 76
-0.29260319471359253 1.2140804529190063 1.5173691511154175 76 229 76
2.4949593544006348 2.3611083030700684 0.00047258284757845104 153 153 153
1.2766515016555786 0.8624721169471741 0.5894253253936768 76 76 229
1.674083948135376 0.6124337315559387 2.0415749549865723 76 76 229
1.4437400102615356 4.2490315437316895 -0.00032620655838400126 153 153 153
0.9891934990882874 -1.4259470701217651 0.021607419475913048 153 153 153
-0.8360456824302673 1.1954561471939087 1.337469458580017 76 229 76
1.2550729513168335 0.9011855721473694 0.10463286191225052 76 76 229
-1.329897165298462 -4.16422176361084 0.006442819721996784 153 153 153
-0.2662447690963745 0.18003186583518982 1.4423164129257202 76 229 76
1.165989875793457 1.3339588642120361 1.9503587484359741 76 76 229
0.8863233327865601 -0.08475704491138458 -0.0062668886967003345 153 153 153
1.5868983268737793 1.9427459239959717 0.942548394203186 76 76 229
1.1751048564910889 1.5493663549423218 1.6413990259170532 76 76 229
-2.5774190425872803 3.9615325927734375 -0.00048430959577672184 153 153 153
-0.8392040729522705 -1.8513065576553345 0.47757774591445923 229 76 76
2.525287389755249 1.112000584602356 0.0024459739215672016 153 153 153
-1.0332179069519043 -4.626807689666748 -0.014777861535549164 153 153 153
3.252115249633789 3.6146416664123535 -0.008072378113865852 153 153 153
0.1810285598039627 2.719059705734253 -0.01740555837750435 153 153 153
2.5175397396087646 1.188637614250183 1.4666684865951538 76 76 229
-0.6249645948410034 -2.03330135345459 0.5950628519058228 229 76 76
-0.6293360590934753 -1.3317008018493652 1.2917317152023315 229 76 76
-1.5917772054672241 -2.0017497539520264 1.6767092943191528 229 76 76
2.1780080795288086 0.7387949228286743 -0.016781115904450417 153 153 153
-3.4950191974639893 0.08323800563812256 -0.02463577501475811 153 153 153
2.338524103164673 -0.5009312033653259 0.0014943205751478672 153 153 153
-1.0055186748504639 0.516315221786499 1.3125114440917969 76 229 76
0.9361951351165771 -2.4319024085998535 0.011505003087222576 153 153 153
0.06758179515600204 1.3534953594207764 0.5493460297584534 76 229 76
0.2095235288143158 3.010564088821411 0.0027142760809510946 153 153 153
3.9941678047180176 3.675133228302002 0.006343125831335783 153 153 153
2.2469658851623535 0.9934991598129272 -0.002575998194515705 153 153 153
-1.984920620918274 -2.333001136779785 0.7697556018829346 229 76 76
0.17517125606536865 0.00511248130351305 0.0061275227926671505 153 153 153
-3.1517508029937744 -4.475717544555664 0.018725115805864334 153 153 153
-0.8121281862258911 -2.353597640991211 1.207014799118042 229 76 76
-0.9959537982940674 0.4211222529411316 0.5011919736862183 76 229 76
-1.19895339012146 -1.3434582948684692 0.9968287944793701 229 76 76
-1.9239897727966309 -1.3253921270370483 0.5878118872642517 229 76 76
-1.1189697980880737 1.0284485816955566 0.8815218806266785 76 229 76
2.367424964904785 0.8537774682044983 0.28196218609809875 76 76 229
2.4098689556121826 1.6666350364685059 1.9541066884994507 76 76 229
1.2014907598495483 1.577278733253479 0.3029129207134247 76 76 229
-4.910871982574463 -0.07657992839813232 -0.003493828233331442 153 153 153
-0.9906589984893799 -2.227803945541382 1.6683783531188965 229 76 76
-4.6631364822387695 -3.9364917278289795 -0.008217434398829937 153 153 153
-0.8834425210952759 2.169797897338867 -0.006677118595689535 153 153 153
2.051298141479492 -2.106509208679199 -0.005165941547602415 153 153 153
-1.9735926389694214 3.116346597671509 -0.009789243340492249 153 153 153
-0.2933911383152008 -0.03801586851477623 0.9523204565048218 76 229 76
-2.077885150909424 -3.8665084838867188 -0.02005842514336109 153 153 153
0.9969748258590698 3.267957925796509 -0.009310574270784855 153 153 153
2.524589776992798 1.2952697277069092 1.44240403175354 76 76 229
1.9488359689712524 -1.6623988151550293 0.005645307712256908 153 153 153
0.21660517156124115 1.1886152029037476 0.5642752051353455 76 229 76
-1.8680472373962402 -2.342472791671753 1.5247504711151123 229 76 76
-0.9243782162666321 0.5487809777259827 0.33573243021965027 76 229 76
-0.20900259912014008 0.5835261940956116 1.6391160488128662 76 229 76
-0.45513078570365906 -0.036693472415208817 0.7263458967208862 76 229 76
-1.2029792070388794 -1.3327107429504395 1.0454503297805786 229 76 76
1.1585925817489624 1.0484473705291748 1.8912163972854614 76 76 229
1.7139708995819092 1.9542820453643799 1.1592745780944824 76 76 229
-2.3678505420684814 -3.378709077835083 -0.007049488369375467 153 153 153
1.9655475616455078 4.4452667236328125 0.0057825492694973946 153 153 153
-0.3553808927536011 1.4827922582626343 1.1792737245559692 76 229 76
1.5955179929733276 1.9311256408691406 1.949216365814209 76 76 229
-0.38507282733917236 1.186120867729187 0.2382727712392807 76 229 76
-0.999330997467041 -2.3531100749969482 1.656986117362976 229 76 76
-3.507978677749634 -3.880056381225586 0.008166049607098103 153 153 153
-4.641461372375488 -3.630540132522583 -0.005266202613711357 153 153 153
1.3022960424423218 -2.296224594116211 0.00310389488004148 153 153 153
-0.6114793419837952 -1.8115308284759521 0.7373049259185791 229 76 76
-1.5396944284439087 2.5613186359405518 -0.003562815487384796 153 153 153
-1.632766842842102 -1.3474775552749634 1.3897541761398315 229 76 76
2.1723849773406982 0.6748936772346497 0.18008241057395935 76 76 229
-0.7480350732803345 2.994767427444458 0.001025852863676846 153 153 153
-1.0088222026824951 -4.260024547576904 -0.0062390160746872425 153 153 153
1.4256082773208618 -3.110686779022217 0.0017821337096393108 153 153 153
-0.9986039996147156 0.4436412751674652 0.5072619915008545 76 229 76
-0.6283835768699646 -2.1087136268615723 0.5041879415512085 229 76 76
1.4126908779144287 0.7306109666824341 0.898935854434967 76 76 229
-1.2914787530899048 -2.345283269882202 0.8394235968589783 229 76 76
-3.136223316192627 -2.765404462814331 -0.006719832308590412 153 153 153
-2.595484733581543 1.1428767442703247 -0.0035147271119058132 153 153 153
0.17643319070339203 0.20677097141742706 0.7036263346672058 76 229 76
4.862294673919678 0.3244529068470001 -0.0010332686360925436 153 153 153
1.8219835758209229 -3.06427001953125 0.010997461155056953 153 153 153
0.46085822582244873 -4.119686126708984 -0.031165169551968575 153 153 153
-1.820059061050415 -1.3497827053070068 1.086245059967041 229 76 76
2.055457353591919 1.9442510604858398 1.0091972351074219 76 76 229
4.522035121917725 0.44183361530303955 -0.00547403609380126 153 153 153
2.5931525230407715 3.9629874229431152 0.0035730127710849047 153 153 153
1.128326654434204 1.3383854627609253 0.7747104167938232 76 76 229
-0.6860964894294739 -2.1207799911499023 1.669982671737671 229 76 76
-1.2779264450073242 -1.33687162399292 1.020174503326416 229 76 76
1.2680699825286865 0.5973209142684937 -0.006196299567818642 153 153 153
-1.7195876836776733 -1.8374748229980469 0.4792463481426239 229 76 76
-1.8190487623214722 3.9546616077423096 -0.01128624938428402 153 153 153
1.1501868963241577 1.4984174966812134 0.7701447606086731 76 76 229
1.7854876518249512 0.6209949851036072 0.21138896048069 76 76 229
-1.3827550411224365 -1.7596150636672974 1.6729284524917603 229 76 76
-4.771697044372559 0.6339035630226135 0.010664057917892933 153 153 153
-0.5262802839279175 1.499302625656128 0.6906454563140869 76 229 76
1.8723477125167847 4.8427510261535645 -0.017873717471957207 153 153 153
1.6460074186325073 1.9720540046691895 1.7054206132888794 76 76 229
-0.014924997463822365 0.3476041853427887 1.4884554147720337 76 229 76
-1.104651689529419 -1.5601091384887695 1.661379337310791 229 76 76
-0.37257206439971924 0.1844993382692337 1.4304466247558594 76 229 76
-1.6684885025024414 -3.609363079071045 -0.01669246144592762 153 153 153
1.7066576480865479 1.9473727941513062 0.5813448429107666 76 76 229
-1.3712732791900635 -2.2792325019836426 0.46713021397590637 229 76 76
2.6509227752685547 1.0886050462722778 -0.011984949000179768 153 153 153
-1.4021896123886108 -0.7235570549964905 0.013136663474142551 153 153 153
-0.7826982736587524 0.45363184809684753 0.30143919587135315 76 229 76
0.11973831057548523 1.263445496559143 1.1838322877883911 76 229 76
4.772573471069336 2.654679775238037 -0.001450599986128509 153 153 153
0.40665704011917114 0.7521786093711853 0.8412199020385742 76 229 76
-1.3993850946426392 -1.2911995649337769 0.01058141142129898 153 153 153
-1.9616130590438843 -2.3299319744110107 1.3482142686843872 229 76 76
2.4604299068450928 1.5651003122329712 1.9665940999984741 76 76 229
-0.01083235815167427 -1.7611960172653198 -0.010944769717752934 153 153 153
4.27976655960083 -2.6657092571258545 0.01355589646846056 153 153 153
0.17977672815322876 -4.602654457092285 0.01339067704975605 153 153 153
-0.6404331922531128 0.9265754818916321 1.6247920989990234 76 229 76
-0.3560146689414978 1.5243959426879883 0.7638537287712097 76 229 76
-0.2692848742008209 1.2738488912582397 0.3075758218765259 76 229 76
-1.8956831693649292 -1.5024745464324951 0.4715322256088257 229 76 76
-0.2087794989347458 0.006845278665423393 1.1566708087921143 76 229 76
-4.906770706176758 2.6006336212158203 -0.015506099909543991 153 153 153
-0.8719208836555481 1.034293293952942 1.412354826927185 76 229 76
3.356534481048584 2.134530782699585 -0.004129273816943169 153 153 153
3.1089487075805664 -1.4507145881652832 0.008865192532539368 153 153 153
4.364044189453125 -2.293159008026123 0.0005318928160704672 153 153 153
-1.0226682424545288 -2.340765953063965 1.3286142349243164 229 76 76
2.2473723888397217 0.7217854261398315 1.9710773229599 76 76 229
1.4241434335708618 1.8510653972625732 0.44825124740600586 76 76 229
2.428004026412964 1.6365598440170288 1.1717710494995117 76 76 229
-1.9768486022949219 -1.876159906387329 0.46929851174354553 229 76 76
3.31787109375 3.0561110973358154 0.004699661862105131 153 153 153
-4.408711910247803 -4.444012641906738 -0.008017093874514103 153 153 153
4.507755279541016 -4.821913242340088 -0.013719840906560421 153 153 153
-1.4256038665771484 3.921715021133423 -0.009663470089435577 153 153 153
1.7403159141540527 2.0335404872894287 0.0007149511366151273 153 153 153
1.9520611763000488 -4.912803649902344 0.005798139609396458 153 153 153
1.6723052263259888 1.9769622087478638 1.3316746950149536 76 76 229
-1.3735955953598022 -2.3321948051452637 0.9968760013580322 229 76 76
-1.6677539348602295 -1.3603065013885498 1.6676641702651978 229 76 76
3.25411057472229 -4.038598537445068 0.015168022364377975 153 153 153
-0.7939080595970154 0.08573472499847412 0.6571266055107117 76 229 76
-0.8435845375061035 -2.321753740310669 0.6777424216270447 229 76 76
-2.0099620819091797 -2.341721773147583 0.9439895153045654 229 76 76
2.5110397338867188 1.1407965421676636 0.907015323638916 76 76 229
2.33957576751709 -2.201104164123535 0.020177152007818222 153 153 153
1.1771471500396729 1.4707609415054321 2.069469928741455 76 76 229
-1.5946849584579468 -0.6286932229995728 0.00944424420595169 153 153 153
4.968299865722656 -2.4550654888153076 0.004396227188408375 153 153 153
1.4111974239349365 0.7356410622596741 1.5787324905395508 76 76 229
-2.025589942932129 -2.28147292137146 0.6818711757659912 229 76 76
0.1317758858203888 -1.253554344177246 0.009901601821184158 153 153 153
2.4667510986328125 0.9987714290618896 0.775541365146637 76 76 229
1.2705588340759277 -0.4633913040161133 -0.006646348629146814 153 153 153
2.5361039638519287 1.3874229192733765 2.0874075889587402 76 76 229
1.703823208808899 0.6035096049308777 0.8876773118972778 76 76 229
-0.07092617452144623 1.3168833255767822 1.3397334814071655 76 229 76
-2.0318403244018555 -1.7039930820465088 0.7472237348556519 229 76 76
1.4373745918273926 1.8871387243270874 0.4389740824699402 76 76 229
-0.10943114012479782 3.439544916152954 0.025456538423895836 153 153 153
0.6636110544204712 -4.649686813354492 0.012238635681569576 153 153 153
-0.7452024817466736 4.752921104431152 -0.010669117793440819 153 153 153
-2.248511791229248 3.1711459159851074 0.01655455306172371 153 153 153
1.2816197872161865 -0.5646295547485352 -0.007421963382512331 153 153 153
-4.479180335998535 2.1998085975646973 0.019064325839281082 153 153 153
0.5227897763252258 3.6738131046295166 0.0027858857065439224 153 153 153
0.3152305483818054 0.34385237097740173 0.8961377143859863 76 229 76
-1.7834242582321167 4.810491561889648 -0.0043031927198171616 153 153 153
-2.16341495513916 4.261355400085449 -0.005329115781933069 153 153 153
-2.6112399101257324 4.675008296966553 0.0032327233348041773 153 153 153
-0.66661536693573 0.04590874910354614 0.6427252888679504 76 229 76
2.341644048690796 1.759749412536621 1.2440916299819946 76 76 229
-0.9102379083633423 -1.3392927646636963 0.9810476899147034 229 76 76
2.7057738304138184 -0.7920143604278564 -0.007602678146213293 153 153 153
3.078913450241089 1.5008620023727417 -0.012599173001945019 153 153 153
0.3411712646484375 0.6103885769844055 1.250081181526184 76 229 76
-4.0249857902526855 -2.6098930835723877 0.0018732707249000669 153 153 153
4.305192470550537 -2.179288625717163 0.010948783718049526 153 153 153
4.564815044403076 -4.018561840057373 -0.004430044908076525 153 153 153
1.6272386312484741 0.6266101002693176 1.8474011421203613 76 76 229
-1.1974283456802368 2.0500473976135254 0.00951810460537672 153 153 153
-1.9760289192199707 -1.990735650062561 0.4553278386592865 229 76 76
-4.355995178222656 1.947287917137146 0.016487976536154747 153 153 153
-0.6994103789329529 -1.2021663188934326 -0.0068763927556574345 153 153 153
0.5087924599647522 -4.013452053070068 -0.010189861059188843 153 153 153
3.2922780513763428 0.8329007029533386 -0.00501481955870986 153 153 153
-3.803356647491455 -3.795518636703491 0.0004233374784234911 153 153 153
-3.045391082763672 1.797076940536499 -0.006313435733318329 153 153 153
-4.577306747436523 4.065530776977539 0.011391312815248966 153 153 153
-3.574427366256714 -1.180303692817688 0.007059159222990274 153 153 153
-3.1831912994384766 -3.481672763824463 0.0030799948144704103 153 153 153
1.3182463645935059 1.751089334487915 1.807854413986206 76 76 229
-2.1197328567504883 3.7060604095458984 0.004009325988590717 153 153 153
-1.6367934942245483 -3.6828670501708984 -0.011164327152073383 153 153 153
2.6847753524780273 -2.2938873767852783 -0.008570280857384205 153 153 153
2.0827796459198 0.6369831562042236 1.0106346607208252 76 76 229
1.1922718286514282 1.5336296558380127 0.9075953364372253 76 76 229
2.5079238414764404 1.408107042312622 1.4418578147888184 76 76 229
1.3017874956130981 -4.691792011260986 0.014606790617108345 153 153 153
-0.7672880291938782 -1.3206616640090942 1.6348546743392944 229 76 76
2.4889206886291504 2.2121331691741943 -0.011731429025530815 153 153 153
-0.6130477786064148 -1.4403226375579834 0.6555898189544678 229 76 76
1.2419042587280273 -1.1479121446609497 -0.000592036813031882 153 153 153
-1.1173348426818848 -4.836012840270996 -0.015158151276409626 153 153 153
-1.380245566368103 -1.3527950048446655 1.1987215280532837 229 76 76
1.8569540977478027 0.5918968915939331 0.29569023847579956 76 76 229
1.8007795810699463 0.5990990996360779 1.2386199235916138 76 76 229
-4.3567304611206055 -1.5380610227584839 -0.018427416682243347 153 153 153
-4.034571170806885 -2.7205653190612793 -0.018511956557631493 153 153 153
-2.3991451263427734 3.1341512203216553 0.017353367060422897 153 153 153
1.4496116638183594 1.843141794204712 2.060842275619507 76 76 229
1.1565979719161987 1.4291852712631226 1.8096789121627808 76 76 229
-2.0241100788116455 -1.6259534358978271 0.6428934931755066 229 76 76
0.5728943347930908 -0.8579941987991333 0.02185169793665409 153 153 153
-2.757038116455078 3.8047313690185547 0.011090907268226147 153 153 153
4.71294641494751 -2.4182589054107666 -0.000998178031295538 153 153 153
4.346601963043213 -4.655994892120361 -0.0016922194045037031 153 153 153
-0.4468178153038025 3.293928861618042 0.005511274095624685 153 153 153
-0.10821802914142609 1.1855952739715576 0.2781880497932434 76 229 76
-1.4027527570724487 -1.330773949623108 1.1718113422393799 229 76 76
-1.8160772323608398 -1.323229432106018 1.094152808189392 229 76 76
1.8359570503234863 0.5842435359954834 1.053924560546875 76 76 229
-1.8285857439041138 -2.3541858196258545 1.4267407655715942 229 76 76
1.2518125772476196 0.9213855266571045 0.7505982518196106 76 76 229
2.967546224594116 0.7081159353256226 -0.013803824782371521 153 153 153
1.6612350940704346 0.4882248044013977 -0.014051009900867939 153 153 153
2.5308659076690674 1.2806241512298584 0.9606130123138428 76 76 229
3.0844249725341797 3.74277663230896 0.01023357268422842 153 153 153
-1.1641696691513062 2.5814671516418457 -0.0004977803910151124 153 153 153
-0.05308663100004196 1.4677714109420776 1.0158464908599854 76 229 76
2.46621036529541 1.0188658237457275 0.6678956747055054 76 76 229
1.9667975902557373 3.955906391143799 0.012160741724073887 153 153 153
-1.0471638441085815 0.8370068669319153 0.4720914959907532 76 229 76
3.7851650714874268 1.1058504581451416 0.003205300774425268 153 153 153
0.253508985042572 0.30319905281066895 0.6179380416870117 76 229 76
2.5233101844787598 1.3041391372680664 0.7717277407646179 76 76 229
4.62222146987915 4.1291584968566895 0.0060903169214725494 153 153 153
-0.6874550580978394 1.0337269306182861 1.5556308031082153 76 229 76
1.2688014507293701 1.680234670639038 1.8442553281784058 76 76 229
4.4308953285217285 2.3611221313476562 6.966965884203091e-05 153 153 153
-3.7675817012786865 4.099710941314697 0.007566997315734625 153 153 153
-0.6010788679122925 -2.068995237350464 0.5624206066131592 229 76 76
-1.4884355068206787 -1.3410495519638062 1.0991796255111694 229 76 76
-0.6504393219947815 -4.873507499694824 -0.008390303701162338 153 153 153
2.5088260173797607 1.4602887630462646 1.2343873977661133 76 76 229
-3.7307863235473633 2.601442337036133 0.005117021035403013 153 153 153
1.149141550064087 1.4477068185806274 1.0612857341766357 76 76 229
-1.4519482851028442 -1.3219568729400635 0.8239881992340088 229 76 76
2.3061041831970215 1.7789852619171143 0.5892400145530701 76 76 229
2.3439254760742188 0.33880379796028137 -0.00757439574226737 153 153 153
-2.0775668621063232 -1.7658451795578003 -0.0019233066122978926 153 153 153
1.155907392501831 1.4480164051055908 0.2675185203552246 76 76 229
3.7565810680389404 -0.40377384424209595 0.0027189867105334997 153 153 153
-2.228538990020752 -2.055312156677246 -0.009008006192743778 153 153 153
-0.40024465322494507 -4.224699020385742 -0.022844500839710236 153 153 153
1.924425482749939 -2.099658727645874 0.011286850087344646 153 153 153
-0.481192946434021 -0.8139257431030273 -0.006628080271184444 153 153 153
2.205886125564575 -2.8739333152770996 -0.0016966128023341298 153 153 153
-4.343259811401367 4.5515828132629395 0.0016281232237815857 153 153 153
2.702620267868042 0.6472344994544983 0.0006201315554790199 153 153 153
0.38295650482177734 -4.113707065582275 0.005111975129693747 153 153 153
0.6027748584747314 1.9086780548095703 0.00830761343240738 153 153 153
-2.0413599014282227 -1.858883023262024 0.6766841411590576 229 76 76
3.7918362617492676 0.922389805316925 0.001277949078939855 153 153 153
0.31488361954689026 0.33995142579078674 0.9087589979171753 76 229 76
-1.7432003021240234 -2.035902500152588 1.67369544506073 229 76 76
-1.2664514780044556 -1.6363399028778076 1.670680046081543 229 76 76
4.788451194763184 -3.1763269901275635 -0.006118644028902054 153 153 153
-0.45308220386505127 0.2080187350511551 0.2766437530517578 76 229 76
0.0037241242825984955 0.4831695854663849 0.23824074864387512 76 229 76
0.07416217029094696 -4.252767086029053 -0.0017015818739309907 153 153 153
1.1358139514923096 1.400789737701416 0.39624449610710144 76 76 229
-2.9695537090301514 3.1668591499328613 0.004243207164108753 153 153 153
4.749683380126953 -1.6939630508422852 -0.0019493319559842348 153 153 153
1.6544268131256104 1.961661696434021 0.427066832780838 76 76 229
-2.803699016571045 -2.317873239517212 0.019116658717393875 153 153 153
-0.6157591938972473 1.488660454750061 0.9138564467430115 76 229 76
4.09006929397583 -2.863095283508301 0.006758905481547117 153 153 153
4.028947830200195 -1.4885483980178833 -0.0022685062140226364 153 153 153
-2.8924851417541504 -4.723896503448486 0.0005859607481397688 153 153 153
-0.601111888885498 -1.6967219114303589 0.5563851594924927 229 76 76
2.1889195442199707 1.8963931798934937 1.805046796798706 76 76 229
-3.302018404006958 -3.0487661361694336 -0.004401002544909716 153 153 153
-0.7735639810562134 0.06950417906045914 0.9804009795188904 76 229 76
-1.0913437604904175 -2.336609125137329 1.47646963596344 229 76 76
-2.8884646892547607 0.13313862681388855 -0.004226588178426027 153 153 153
-1.7956745624542236 -3.6775548458099365 -0.0010718655539676547 153 153 153
-1.3771120309829712 3.6350598335266113 -0.006019782740622759 153 153 153
0.7819576859474182 -4.71090030670166 -0.014799974858760834 153 153 153
-4.220840930938721 -0.34697824716567993 -0.0026887967251241207 153 153 153
0.38767537474632263 0.7141494750976562 1.120280146598816 76 229 76
-2.746992826461792 -2.8582053184509277 0.004648955538868904 153 153 153
-2.3430261611938477 2.325043201446533 -0.0055766236037015915 153 153 153
1.2278200387954712 1.6493544578552246 1.7495464086532593 76 76 229
-1.0391267538070679 -1.9125734567642212 0.006057208403944969 153 153 153
-0.5930893421173096 -1.4777295589447021 0.0008043587440624833 153 153 153
2.877972364425659 2.274384021759033 -0.018125900998711586 153 153 153
0.42732542753219604 3.903935670852661 0.015616902150213718 153 153 153
-3.940666913986206 4.086707592010498 -0.0028285954613238573 153 153 153
-3.825251340866089 2.4319539070129395 -0.004906844813376665 153 153 153
-3.3330202102661133 4.825570106506348 -0.00988314300775528 153 153 153
-2.0328333377838135 -1.4995180368423462 0.8895901441574097 229 76 76
3.359548807144165 -2.093892812728882 -0.022839689627289772 153 153 153
-4.335541725158691 4.730921745300293 -0.019823618233203888 153 153 153
-1.212486982345581 -2.1284093856811523 0.4744650423526764 229 76 76
-3.8885083198547363 0.6335986852645874 0.00513842236250639 153 153 153
-1.9410417079925537 0.9289494156837463 0.015735523775219917 153 153 153
-0.8288999199867249 -1.7758164405822754 1.6665973663330078 229 76 76
-0.46114256978034973 0.1129816547036171 0.41284337639808655 76 229 76
-1.2873711585998535 -1.6232181787490845 0.006942365318536758 153 153 153
-4.226198673248291 2.4011549949645996 -0.009089111350476742 153 153 153
-1.3936142921447754 -1.7293775081634521 1.6656783819198608 229 76 76
4.622530937194824 1.1532421112060547 -0.004164512734860182 153 153 153
-4.189186096191406 -1.3645950555801392 0.0005719085456803441 153 153 153
-2.122997999191284 -2.310624599456787 -0.0010445973603054881 153 153 153
-4.8129658699035645 2.5537726879119873 0.007357961032539606 153 153 153
-3.390989303588867 -3.838777542114258 -0.008749958127737045 153 153 153
-1.6064497232437134 -1.5814050436019897 0.45250511169433594 229 76 76
-0.710357666015625 -2.338261365890503 0.9637813568115234 229 76 76
-2.9478795528411865 4.971725940704346 -0.005465735215693712 153 153 153
3.880483627319336 -0.33059126138687134 -0.00959121622145176 153 153 153
-1.5736780166625977 -1.3403640985488892 1.6680625677108765 229 76 76
0.4779546856880188 -0.424760103225708 -0.010826293379068375 153 153 153
1.1329385042190552 1.2506450414657593 0.38278928399086 76 76 229
2.135824203491211 0.6527277827262878 0.29444682598114014 76 76 229
-0.046585820615291595 4.902000904083252 -0.01673288457095623 153 153 153
-0.2664896547794342 0.9513881802558899 0.12530578672885895 76 229 76
-2.8221328258514404 1.0200999975204468 -0.017548294737935066 153 153 153
-0.7614567279815674 0.08339076489210129 1.0623741149902344 76 229 76
-2.0229899883270264 -1.851845145225525 1.1983987092971802 229 76 76
0.23875179886817932 0.4392537474632263 0.4921265244483948 76 229 76
2.3079631328582764 1.8904082775115967 0.025997191667556763 153 153 153
3.53544545173645 0.6520277261734009 -0.006530091632157564 153 153 153
-0.7588625550270081 0.07475126534700394 1.0880306959152222 76 229 76
-0.16563355922698975 0.9827671647071838 0.14138410985469818 76 229 76
-1.493301272392273 -0.8302271366119385 0.004952894523739815 153 153 153
-1.7785437107086182 -2.353222370147705 0.9742476344108582 229 76 76
-1.7928630113601685 -1.4935803413391113 0.4502503275871277 229 76 76
1.9210420846939087 1.997633695602417 0.2619272768497467 76 76 229
1.226616382598877 0.9101669788360596 1.0119576454162598 76 76 229
0.39008209109306335 0.4933707118034363 0.7752588391304016 76 229 76
1.4035676717758179 0.7516181468963623 1.5245593786239624 76 76 229
-0.8687354326248169 1.2929110527038574 0.6157878041267395 76 229 76
-2.029895067214966 -2.0507144927978516 0.7282164692878723 229 76 76
1.638984203338623 -4.756143569946289 -0.007893206551671028 153 153 153
-0.770667552947998 2.1611239910125732 -0.010048026219010353 153 153 153
1.3884499073028564 0.741857647895813 0.9898640513420105 76 76 229
2.4417736530303955 1.6062859296798706 1.1585842370986938 76 76 229
1.4192684888839722 0.7340696454048157 0.24169974029064178 76 76 229
3.6367247104644775 -1.8289912939071655 -0.004865394905209541 153 153 153
2.2331383228302 3.068317174911499 -0.00020619574934244156 153 153 153
-1.0553277730941772 -4.508320331573486 -0.005699090659618378 153 153 153
-0.6763484477996826 -1.3367507457733154 1.2969602346420288 229 76 76
-2.527920722961426 4.304471969604492 0.003268423955887556 153 153 153
0.242916539311409 0.6151434779167175 1.361246109008789 76 229 76
-2.6071977615356445 4.665521621704102 -0.01747981645166874 153 153 153
-1.9292545318603516 -1.492395043373108 0.4637308418750763 229 76 76
-1.8972793817520142 -1.5071378946304321 0.4503042697906494 229 76 76
0.8962435722351074 4.694060325622559 -0.005227153189480305 153 153 153
0.32054227590560913 0.4890116751194 0.528806209564209 76 229 76
1.516053557395935 -4.482564449310303 0.007952682673931122 153 153 153
1.9933801889419556 0.3643178343772888 0.015514555387198925 153 153 153
-2.3359055519104004 -1.7225792407989502 0.0035460935905575752 153 153 153
1.5595334768295288 1.9319090843200684 0.14581090211868286 76 76 229
2.0007171630859375 1.9589159488677979 1.7356517314910889 76 76 229
-1.3279794454574585 2.9045302867889404 -0.016702817752957344 153 153 153
-4.363210201263428 3.219198703765869 0.013000338338315487 153 153 153
1.9118127822875977 0.5927645564079285 0.5537058115005493 76 76 229
-0.6131467819213867 1.454578161239624 0.7040566802024841 76 229 76
-0.6661384105682373 -1.5179942846298218 0.45131805539131165 229 76 76
-0.5949754118919373 -0.014277813956141472 0.970510721206665 76 229 76
-0.005147618241608143 0.2090051770210266 -0.00758229847997427 153 153 153
1.336717128753662 -1.7360575199127197 0.0012588432291522622 153 153 153
-1.2582950592041016 -1.3365964889526367 1.6486852169036865 229 76 76
2.4298083782196045 1.6186922788619995 0.4258336126804352 76 76 229
1.5916550159454346 1.9437003135681152 1.8397495746612549 76 76 229
-2.5598714351654053 -4.565916061401367 -0.010383629240095615 153 153 153
-0.19697335362434387 -0.7146160006523132 0.007672719657421112 153 153 153
5.000034332275391 -3.9564900398254395 -0.0007508167182095349 153 153 153
-0.31249043345451355 0.8859761953353882 -0.01731693744659424 153 153 153
-0.2869263291358948 0.16971445083618164 1.4397047758102417 76 229 76
0.0073644551448524 1.4193717241287231 0.6783347725868225 76 229 76
0.10800394415855408 0.548656165599823 1.4872161149978638 76 229 76
-0.8443613052368164 0.2420300841331482 1.2973580360412598 76 229 76
-1.2380409240722656 -2.1115522384643555 0.4798468053340912 229 76 76
-0.6228971481323242 -1.3807216882705688 1.1422163248062134 229 76 76
2.291355848312378 0.7688546776771545 1.580750823020935 76 76 229
-1.978083848953247 -2.0767204761505127 1.6660138368606567 229 76 76
-0.8971829414367676 -0.9344272613525391 -0.015223848633468151 153 153 153
-4.282723426818848 2.1499483585357666 -0.0033719269558787346 153 153 153
-0.6131187677383423 -2.142563819885254 1.2791944742202759 229 76 76
2.294443368911743 2.5894694328308105 -0.00503519456833601 153 153 153
1.1822348833084106 -4.6632866859436035 0.00820527970790863 153 153 153
-4.065627574920654 -4.495330333709717 0.004364548251032829 153 153 153
-0.28885966539382935 4.8496413230896 0.0021200214978307486 153 153 153
4.530771732330322 -1.2813489437103271 -0.01531413197517395 153 153 153
1.9758515357971191 -3.291933298110962 -0.022910697385668755 153 153 153
1.8624486923217773 1.9781184196472168 1.3473173379898071 76 76 229
1.7815818786621094 -0.48889923095703125 0.0019607404246926308 153 153 153
1.947283387184143 4.618608474731445 0.0010376808932051063 153 153 153
-3.3550567626953125 -0.09836861491203308 0.00707549462094903 153 153 153
2.4967761039733887 1.4486298561096191 1.0906161069869995 76 76 229
-2.4451820850372314 -3.599687099456787 0.011360242031514645 153 153 153
-3.1579220294952393 -1.9491323232650757 -0.0013887067325413227 153 153 153
-1.9378221035003662 -1.3380731344223022 1.1549253463745117 229 76 76
-0.6210187673568726 -1.4912137985229492 1.2964156866073608 229 76 76
2.0784597396850586 0.6531122922897339 1.1631708145141602 76 76 229
1.8548520803451538 -1.1618585586547852 -0.007914389483630657 153 153 153
1.1488804817199707 1.1526446342468262 1.310307502746582 76 76 229
-1.600704312324524 -2.3323400020599365 0.5628330111503601 229 76 76
0.6977829337120056 -1.944731593132019 0.0057615842670202255 153 153 153
3.6177496910095215 -4.40567684173584 0.0013894883450120687 153 153 153
1.5720458030700684 1.9392236471176147 0.5914593935012817 76 76 229
-0.09930507093667984 1.9195173978805542 -0.007837571203708649 153 153 153
1.5054572820663452 1.9091670513153076 0.683201253414154 76 76 229
3.7188587188720703 3.8831746578216553 0.002818116219714284 153 153 153
-1.6197372674942017 -2.2598907947540283 0.4782368242740631 229 76 76
1.624433994293213 1.9610705375671387 1.4982258081436157 76 76 229
1.4423421621322632 1.8858416080474854 1.1946115493774414 76 76 229
-0.748096227645874 1.0253053903579712 0.23010028898715973 76 229 76
-0.8970810174942017 4.684324741363525 0.005440663080662489 153 153 153
-3.7142770290374756 -2.596632242202759 0.01608613319694996 153 153 153
-0.5290923118591309 0.12313959002494812 0.392755925655365 76 229 76
0.4086596667766571 0.7805378437042236 1.0881433486938477 76 229 76
-1.6370786428451538 -1.3319414854049683 1.140605092048645 229 76 76
-2.0114314556121826 -2.223778486251831 0.5925218462944031 229 76 76
1.7453317642211914 1.977497935295105 2.0873398780822754 76 76 229
-1.8812026977539062 -2.3493971824645996 1.308484673500061 229 76 76
4.888941764831543 -1.2174443006515503 -0.012611465528607368 153 153 153
-0.9787065982818604 -1.324886679649353 0.8050498366355896 229 76 76
0.9347890019416809 1.783239483833313 -0.010087268427014351 153 153 153
-1.308141827583313 -1.3494393825531006 1.188407063484192 229 76 76
0.7894641160964966 1.5289102792739868 0.0035334054846316576 153 153 153
1.3334989547729492 0.7851206064224243 0.6766367554664612 76 76 229
-0.12200099974870682 -0.010828237049281597 0.8601670265197754 76 229 76
0.3782500922679901 0.7144588232040405 0.5988730192184448 76 229 76
-2.371241807937622 2.768605947494507 -0.006631719879806042 153 153 153
1.7688956260681152 0.6060440540313721 0.5762455463409424 76 76 229
0.45329201221466064 -3.3491289615631104 0.011022401042282581 153 153 153
3.981775999069214 -2.999835729598999 0.012095816433429718 153 153 153
-3.2838022708892822 3.0358145236968994 0.01980551891028881 153 153 153
-4.236945152282715 -0.9047768115997314 -0.0005314395530149341 153 153 153
2.3522250652313232 1.7484749555587769 0.4166240394115448 76 76 229
-1.904188632965088 0.3184919059276581 0.0015085535123944283 153 153 153
1.3378950357437134 0.7849829792976379 1.9614808559417725 76 76 229
2.118809938430786 1.9165040254592896 1.4713366031646729 76 76 229
-0.5443539619445801 1.5091181993484497 0.7531575560569763 76 229 76
0.15013140439987183 0.23104619979858398 1.1718965768814087 76 229 76
